# .PCD v.7 - Point Cloud Data file format
FIELDS x y z rgb imX imY
SIZE 4 4 4 4 4 4
TYPE F F F F F F
COUNT 1 1 1 1 1 1
WIDTH 832
HEIGHT 1
VIEWPOINT 0 0 0 1 0 0 0
POINTS 832
DATA ascii
-0.010001013 0.713 -0.016251646 9.4960154e-39 312 253
-0.0087508867 0.713 -0.016251646 9.4038197e-39 313 253
-0.0075007593 0.713 -0.016251646 9.3101962e-39 314 253
-0.0062506334 0.713 -0.016251646 9.1258049e-39 315 253
-0.0050075199 0.71399999 -0.016274439 8.8506628e-39 316 253
-0.00376616 0.71600002 -0.016320027 8.7584657e-39 317 253
-0.0025142799 0.71700001 -0.016342819 8.5755206e-39 318 253
-0.00125714 0.71700001 -0.016342819 8.5755206e-39 319 253
0 0.71899998 -0.016388407 8.5748144e-39 320 253
0.0012606466 0.71899998 -0.016388407 8.5748144e-39 321 253
0.0025248001 0.72000003 -0.0164112 8.66701e-39 322 253
0.0037977197 0.722 -0.016456785 8.5748144e-39 323 253
0.0050636264 0.722 -0.016456785 7.4738814e-39 324 253
0.0063295332 0.722 -0.016456785 7.9348582e-39 325 253
-0.035298105 0.71899998 -0.017649053 1.5115725e-38 292 254
-0.03403746 0.71899998 -0.017649053 1.3179617e-38 293 254
-0.032685637 0.71700001 -0.017599959 8.4844446e-39 294 254
-0.031428497 0.71700001 -0.017599959 8.3918903e-39 295 254
-0.03012928 0.71600002 -0.017575413 8.9479157e-39 296 254
-0.028793238 0.71399999 -0.017526319 8.9479157e-39 297 254
-0.027502786 0.713 -0.017501773 9.3152366e-39 298 254
-0.026179021 0.71100003 -0.01745268 9.2226823e-39 299 254
-0.024932399 0.71100003 -0.01745268 9.498881e-39 300 254
-0.023652466 0.70999998 -0.017428132 9.8676621e-39 301 254
-0.022407599 0.70999998 -0.017428132 9.960564e-39 302 254
-0.021162732 0.70999998 -0.017428132 1.0052761e-38 303 254
-0.01994592 0.71100003 -0.01745268 1.032755e-38 304 254
-0.0186993 0.71100003 -0.01745268 1.032755e-38 305 254
-0.01745268 0.71100003 -0.01745268 1.0511218e-38 306 254
-0.01620606 0.71100003 -0.01745268 1.0327189e-38 307 254
-0.014959441 0.71100003 -0.01745268 1.0142441e-38 308 254
-0.01371282 0.71100003 -0.01745268 9.9576941e-39 309 254
-0.0124662 0.71100003 -0.01745268 9.5892816e-39 310 254
-0.01121958 0.71100003 -0.01745268 9.4048889e-39 311 254
-0.0099729598 0.71100003 -0.01745268 9.1276e-39 312 254
-0.0087263398 0.71100003 -0.01745268 8.9432087e-39 313 254
-0.0074797203 0.71100003 -0.01745268 8.3914853e-39 314 254
-0.0062330998 0.71100003 -0.01745268 8.2992896e-39 315 254
-0.0050005065 0.713 -0.017501773 8.2989365e-39 316 254
-0.0037556398 0.71399999 -0.017526319 8.3911321e-39 317 254
-0.0025107733 0.71600002 -0.017575413 8.11599e-39 318 254
-0.0012553866 0.71600002 -0.017575413 8.0237944e-39 319 254
0 0.71700001 -0.017599959 8.2982303e-39 320 254
0.00125714 0.71700001 -0.017599959 8.2982303e-39 321 254
0.0025212932 0.71899998 -0.017649053 8.1152851e-39 322 254
0.0037872 0.72000003 -0.017673599 8.3918706e-39 323 254
0.0050496003 0.72000003 -0.017673599 8.2085556e-39 324 254
0.0063120001 0.72000003 -0.017673599 7.4709905e-39 325 254
0.0075743999 0.72000003 -0.017673599 6.279678e-39 326 254
-0.036558751 0.71899998 -0.018909698 1.723336e-38 291 255
-0.035298105 0.71899998 -0.018909698 1.1707716e-38 292 255
-0.033942781 0.71700001 -0.018857099 8.7570953e-39 293 255
-0.032685637 0.71700001 -0.018857099 8.1174544e-39 294 255
-0.031384666 0.71600002 -0.0188308 8.8550194e-39 295 255
-0.030045118 0.71399999 -0.018778199 9.1315867e-39 296 255
-0.028793238 0.71399999 -0.018778199 9.039391e-39 297 255
-0.027502786 0.713 -0.018751899 9.3145122e-39 298 255
-0.026179021 0.71100003 -0.0186993 9.3145122e-39 299 255
-0.024897331 0.70999998 -0.018672999 9.683631e-39 300 255
-0.023652466 0.70999998 -0.018672999 9.9598592e-39 301 255
-0.022407599 0.70999998 -0.018672999 1.0144604e-38 302 255
-0.021162732 0.70999998 -0.018672999 1.0144604e-38 303 255
-0.019917866 0.70999998 -0.018672999 1.0328272e-38 304 255
-0.018672999 0.70999998 -0.018672999 1.0144241e-38 305 255
-0.017428132 0.70999998 -0.018672999 1.032683e-38 306 255
-0.016183265 0.70999998 -0.018672999 1.0234636e-38 307 255
-0.014938398 0.70999998 -0.018672999 9.9576941e-39 308 255
-0.013693533 0.70999998 -0.018672999 9.6814702e-39 309 255
-0.012448666 0.70999998 -0.018672999 9.404533e-39 310 255
-0.011203799 0.70999998 -0.018672999 9.1283062e-39 311 255
-0.0099589331 0.70999998 -0.018672999 8.9432115e-39 312 255
-0.0087140659 0.70999998 -0.018672999 8.7584601e-39 313 255
-0.0074691991 0.70999998 -0.018672999 8.3904035e-39 314 255
-0.0062330998 0.71100003 -0.0186993 8.2063723e-39 315 255
-0.0049864799 0.71100003 -0.0186993 8.1145397e-39 316 255
-0.0037503797 0.713 -0.018751899 8.1145397e-39 317 255
-0.0025037599 0.71399999 -0.018778199 7.9308743e-39 318 255
-0.00125188 0.71399999 -0.018778199 7.9308743e-39 319 255
0 0.71700001 -0.018857099 8.1141921e-39 320 255
0.00125714 0.71700001 -0.018857099 8.2985834e-39 321 255
0.0025142799 0.71700001 -0.018857099 8.2071066e-39 322 255
0.0037819401 0.71899998 -0.018909698 8.2071066e-39 323 255
0.0050425865 0.71899998 -0.018909698 8.1156411e-39 324 255
0.0063032326 0.71899998 -0.018909698 7.4702717e-39 325 255
0.0076270006 0.72500002 -0.0190675 5.8172552e-39 326 255
0.0088981669 0.72500002 -0.0190675 7.4764178e-39 327 255
-0.037819397 0.71899998 -0.020170346 1.6773821e-38 290 256
-0.036558751 0.71899998 -0.020170346 1.575967e-38 291 256
-0.035298105 0.71899998 -0.020170346 9.5904517e-39 292 256
-0.033942781 0.71700001 -0.020114239 7.4703123e-39 293 256
-0.032640055 0.71600002 -0.020086186 8.9464892e-39 294 256
-0.031384666 0.71600002 -0.020086186 9.0386848e-39 295 256
-0.030045118 0.71399999 -0.020030079 9.0397414e-39 296 256
-0.028793238 0.71399999 -0.020030079 8.9475457e-39 297 256
-0.027502786 0.713 -0.020002026 9.2233857e-39 298 256
-0.026179021 0.71100003 -0.01994592 9.3159401e-39 299 256
-0.024897331 0.70999998 -0.019917866 9.6836282e-39 300 256
-0.023585839 0.708 -0.01986176 9.9598564e-39 301 256
-0.022344479 0.708 -0.01986176 1.0327197e-38 302 256
-0.021103119 0.708 -0.01986176 1.0419393e-38 303 256
-0.019917866 0.70999998 -0.019917866 1.0327553e-38 304 256
-0.018672999 0.70999998 -0.019917866 1.0327553e-38 305 256
-0.017428132 0.70999998 -0.019917866 1.0142801e-38 306 256
-0.016183265 0.70999998 -0.019917866 9.8665761e-39 307 256
-0.014938398 0.70999998 -0.019917866 9.6818331e-39 308 256
-0.013693533 0.70999998 -0.019917866 9.4048875e-39 309 256
-0.012448666 0.70999998 -0.019917866 9.128309e-39 310 256
-0.011203799 0.70999998 -0.019917866 9.0357547e-39 311 256
-0.0099589331 0.70999998 -0.019917866 8.6677008e-39 312 256
-0.0087140659 0.70999998 -0.019917866 8.4829494e-39 313 256
-0.0074691991 0.70999998 -0.019917866 8.2063723e-39 314 256
-0.0062243328 0.70999998 -0.019917866 8.1141767e-39 315 256
-0.0049864799 0.71100003 -0.01994592 8.0223468e-39 316 256
-0.0037398601 0.71100003 -0.01994592 8.0223468e-39 317 256
-0.0025002533 0.713 -0.020002026 7.7472047e-39 318 256
-0.00125188 0.71399999 -0.020030079 7.8394003e-39 319 256
0 0.71600002 -0.020086186 7.9308799e-39 320 256
0.00125714 0.71700001 -0.020114239 8.0230755e-39 321 256
0.0025142799 0.71700001 -0.020114239 7.9315987e-39 322 256
0.0037714199 0.71700001 -0.020114239 7.9315987e-39 323 256
0.0050425865 0.71899998 -0.020170346 7.9308925e-39 324 256
0.0063032326 0.71899998 -0.020170346 7.8386969e-39 325 256
0.0076059597 0.72299999 -0.020282559 7.1018703e-39 326 256
0.0088736191 0.72299999 -0.020282559 6.5490567e-39 327 256
0.01014128 0.72299999 -0.020282559 1.0053958e-38 328 256
-0.039080046 0.71899998 -0.021430992 1.7693616e-38 289 257
-0.037819397 0.71899998 -0.021430992 1.5761825e-38 290 257
-0.036558751 0.71899998 -0.021430992 1.3548769e-38 291 257
-0.035199918 0.71700001 -0.021371379 8.3011464e-39 292 257
-0.033942781 0.71700001 -0.021371379 7.8398081e-39 293 257
-0.032640055 0.71600002 -0.021341572 8.8557256e-39 294 257
-0.031384666 0.71600002 -0.021341572 8.9479227e-39 295 257
-0.030045118 0.71399999 -0.021281958 9.1315713e-39 296 257
-0.028752912 0.713 -0.021252153 9.0390169e-39 297 257
-0.027425639 0.71100003 -0.021192541 9.2233857e-39 298 257
-0.026142199 0.70999998 -0.021162732 9.3159401e-39 299 257
-0.024897331 0.70999998 -0.021162732 9.3162904e-39 300 257
-0.023585839 0.708 -0.021103119 9.408486e-39 301 257
-0.022344479 0.708 -0.021103119 9.9591389e-39 302 257
-0.021103119 0.708 -0.021103119 1.0051336e-38 303 257
-0.019917866 0.70999998 -0.021162732 9.959492e-39 304 257
-0.018672999 0.70999998 -0.021162732 9.959492e-39 305 257
-0.017428132 0.70999998 -0.021162732 9.8669405e-39 306 257
-0.016183265 0.70999998 -0.021162732 9.6825492e-39 307 257
-0.014938398 0.70999998 -0.021162732 9.4967286e-39 308 257
-0.013654959 0.708 -0.021103119 9.1283062e-39 309 257
-0.0124136 0.708 -0.021103119 8.9435618e-39 310 257
-0.01117224 0.708 -0.021103119 8.8513648e-39 311 257
-0.0099589331 0.70999998 -0.021162732 8.4829522e-39 312 257
-0.0087140659 0.70999998 -0.021162732 8.3907566e-39 313 257
-0.0074691991 0.70999998 -0.021162732 8.0227e-39 314 257
-0.0062243328 0.70999998 -0.021162732 7.9301456e-39 315 257
-0.0049794666 0.70999998 -0.021162732 7.7468361e-39 316 257
-0.0037398601 0.71100003 -0.021192541 7.7468361e-39 317 257
-0.0025002533 0.713 -0.021252153 7.5631707e-39 318 257
-0.0012501266 0.713 -0.021252153 7.5631707e-39 319 257
0 0.71399999 -0.021281958 7.8386814e-39 320 257
0.0012553866 0.71600002 -0.021341572 7.8386814e-39 321 257
0.0025107733 0.71600002 -0.021341572 7.8386814e-39 322 257
0.0037714199 0.71700001 -0.021371379 7.8386814e-39 323 257
0.0050285598 0.71700001 -0.021371379 7.8383283e-39 324 257
0.0062857 0.71700001 -0.021371379 7.8383283e-39 325 257
0.0075954394 0.722 -0.021520413 7.7461453e-39 326 257
0.0088736191 0.72299999 -0.021550218 5.9947871e-39 327 257
0.01014128 0.72299999 -0.021550218 8.6674178e-39 328 257
-0.039080046 0.71899998 -0.022691639 1.7786529e-38 289 258
-0.037819397 0.71899998 -0.022691639 1.4562554e-38 290 258
-0.036558751 0.71899998 -0.022691639 1.0690339e-38 291 258
-0.035199918 0.71700001 -0.02262852 7.8419591e-39 292 258
-0.033942781 0.71700001 -0.02262852 8.2111017e-39 293 258
-0.032640055 0.71600002 -0.022596961 8.8557228e-39 294 258
-0.031384666 0.71600002 -0.022596961 8.8557228e-39 295 258
-0.030045118 0.71399999 -0.022533838 9.2226879e-39 296 258
-0.028752912 0.713 -0.022502279 9.1304923e-39 297 258
-0.027425639 0.71100003 -0.022439159 9.2226725e-39 298 258
-0.026142199 0.70999998 -0.022407599 9.3148681e-39 299 258
-0.024897331 0.70999998 -0.022407599 9.2233857e-39 300 258
-0.023585839 0.708 -0.022344479 9.3159401e-39 301 258
-0.022344479 0.708 -0.022344479 9.5910822e-39 302 258
-0.021103119 0.708 -0.022344479 9.5910822e-39 303 258
-0.01986176 0.708 -0.022344479 9.8662216e-39 304 258
-0.0186204 0.708 -0.022344479 9.8662216e-39 305 258
-0.017379038 0.708 -0.022344479 9.7740288e-39 306 258
-0.01613768 0.708 -0.022344479 9.4970817e-39 307 258
-0.01489632 0.708 -0.022344479 9.3116185e-39 308 258
-0.013654959 0.708 -0.022344479 9.2194229e-39 309 258
-0.0124136 0.708 -0.022344479 8.8513648e-39 310 258
-0.01117224 0.708 -0.022344479 8.7591692e-39 311 258
-0.0099308798 0.708 -0.022344479 8.2070884e-39 312 258
-0.008689519 0.708 -0.022344479 8.0226972e-39 313 258
-0.0074481601 0.708 -0.022344479 7.9301512e-39 314 258
-0.0062243328 0.70999998 -0.022407599 7.7457599e-39 315 258
-0.0049794666 0.70999998 -0.022407599 7.6546391e-39 316 258
-0.0037398601 0.71100003 -0.022439159 7.6546391e-39 317 258
-0.0024932399 0.71100003 -0.022439159 7.6542832e-39 318 258
-0.0012501266 0.713 -0.022502279 7.7464802e-39 319 258
0 0.71399999 -0.022533838 7.746483e-39 320 258
0.00125188 0.71399999 -0.022533838 7.746483e-39 321 258
0.0025107733 0.71600002 -0.022596961 7.7464858e-39 322 258
0.00376616 0.71600002 -0.022596961 7.7464858e-39 323 258
0.0050285598 0.71700001 -0.02262852 7.9294421e-39 324 258
0.0062857 0.71700001 -0.02262852 7.9294421e-39 325 258
0.0075954394 0.722 -0.022786319 7.7472047e-39 326 258
0.0088736191 0.72299999 -0.02281788 6.4564659e-39 327 258
0.01014128 0.72299999 -0.02281788 7.7454446e-39 328 258
0.0114405 0.72500002 -0.022880999 1.3184987e-38 329 258
-0.040396802 0.72000003 -0.0239856 1.723336e-38 288 259
-0.039134402 0.72000003 -0.0239856 1.723336e-38 289 259
-0.037871998 0.72000003 -0.0239856 1.2352735e-38 290 259
-0.036558751 0.71899998 -0.023952285 8.0191799e-39 291 259
-0.035199918 0.71700001 -0.02388566 7.8423122e-39 292 259
-0.033942781 0.71700001 -0.02388566 8.3951273e-39 293 259
-0.032640055 0.71600002 -0.023852346 8.4873103e-39 294 259
-0.031296998 0.71399999 -0.02378572 8.4873103e-39 295 259
-0.030003037 0.713 -0.023752406 8.5784115e-39 296 259
-0.028672259 0.71100003 -0.023685781 8.5784115e-39 297 259
-0.027387066 0.70999998 -0.023652466 8.7627831e-39 298 259
-0.026142199 0.70999998 -0.023652466 8.8549788e-39 299 259
-0.024827199 0.708 -0.023585839 8.9475247e-39 300 259
-0.023585839 0.708 -0.023585839 8.9475247e-39 301 259
-0.022312919 0.70700002 -0.023552528 8.9478806e-39 302 259
-0.021073313 0.70700002 -0.023552528 8.8553263e-39 303 259
-0.01986176 0.708 -0.023585839 9.130474e-39 304 259
-0.0186204 0.708 -0.023585839 9.038277e-39 305 259
-0.017379038 0.708 -0.023585839 9.2215893e-39 306 259
-0.016114887 0.70700002 -0.023552528 9.0375581e-39 307 259
-0.01487528 0.70700002 -0.023552528 8.8531641e-39 308 259
-0.013635674 0.70700002 -0.023552528 8.6684141e-39 309 259
-0.012396066 0.70700002 -0.023552528 8.575501e-39 310 259
-0.011156459 0.70700002 -0.023552528 8.4833054e-39 311 259
-0.0099308798 0.708 -0.023585839 8.1145397e-39 312 259
-0.008689519 0.708 -0.023585839 7.9301484e-39 313 259
-0.0074481601 0.708 -0.023585839 7.6542832e-39 314 259
-0.0062067998 0.708 -0.023585839 7.5620875e-39 315 259
-0.0049794666 0.70999998 -0.023652466 7.3787725e-39 316 259
-0.0037345996 0.70999998 -0.023652466 7.4709681e-39 317 259
-0.0024932399 0.71100003 -0.023685781 7.3794942e-39 318 259
-0.00124662 0.71100003 -0.023685781 7.4716912e-39 319 259
0 0.713 -0.023752406 7.4713381e-39 320 259
0.0012501266 0.713 -0.023752406 7.379141e-39 321 259
0.0025002533 0.713 -0.023752406 7.3791438e-39 322 259
0.00376616 0.71600002 -0.023852346 7.3791438e-39 323 259
0.0050215465 0.71600002 -0.023852346 7.378069e-39 324 259
0.0062857 0.71700001 -0.02388566 7.4702661e-39 325 259
0.0075954394 0.722 -0.024052227 7.4706206e-39 326 259
0.0088613462 0.722 -0.024052227 6.7330556e-39 327 259
0.01014128 0.72299999 -0.024085538 8.0198707e-39 328 259
0.01140894 0.72299999 -0.024085538 1.226051e-38 329 259
0.012676599 0.72299999 -0.024085538 1.5760742e-38 330 259
-0.040396802 0.72000003 -0.025248 1.723336e-38 288 260
-0.039134402 0.72000003 -0.025248 1.5942622e-38 289 260
-0.037819397 0.71899998 -0.025212931 1.03255e-38 290 260
-0.036558751 0.71899998 -0.025212931 6.9142617e-39 291 260
-0.035199918 0.71700001 -0.0251428 8.1174544e-39 292 260
-0.03389544 0.71600002 -0.025107734 8.20965e-39 293 260
-0.032548878 0.71399999 -0.025037598 8.4847921e-39 294 260
-0.031253166 0.713 -0.025002534 8.4847921e-39 295 260
-0.029918881 0.71100003 -0.024932399 8.4854956e-39 296 260
-0.028631933 0.70999998 -0.024897331 8.6695267e-39 297 260
-0.027387066 0.70999998 -0.024897331 8.76243e-39 298 260
-0.026068559 0.708 -0.024827199 8.76243e-39 299 260
-0.024827199 0.708 -0.024827199 8.6720294e-39 300 260
-0.023552528 0.70700002 -0.024792133 8.6720294e-39 301 260
-0.022312919 0.70700002 -0.024792133 8.6716665e-39 302 260
-0.021073313 0.70700002 -0.024792133 8.5794709e-39 303 260
-0.019833706 0.70700002 -0.024792133 9.0379225e-39 304 260
-0.018594101 0.70700002 -0.024792133 8.8535298e-39 305 260
-0.017354494 0.70700002 -0.024792133 8.9453625e-39 306 260
-0.016114887 0.70700002 -0.024792133 8.7606125e-39 307 260
-0.01487528 0.70700002 -0.024792133 8.6684141e-39 308 260
-0.013635674 0.70700002 -0.024792133 8.5762171e-39 309 260
-0.012396066 0.70700002 -0.024792133 8.2077975e-39 310 260
-0.011156459 0.70700002 -0.024792133 8.1156032e-39 311 260
-0.0099168532 0.70700002 -0.024792133 7.9305015e-39 312 260
-0.008689519 0.708 -0.024827199 7.746469e-39 313 260
-0.0074481601 0.708 -0.024827199 7.3791284e-39 314 260
-0.0062067998 0.708 -0.024827199 7.3791284e-39 315 260
-0.0049794666 0.70999998 -0.024897331 7.3791256e-39 316 260
-0.0037345996 0.70999998 -0.024897331 7.3791256e-39 317 260
-0.0024932399 0.71100003 -0.024932399 7.3798473e-39 318 260
-0.00124662 0.71100003 -0.024932399 7.1954574e-39 319 260
0 0.713 -0.025002534 7.4709737e-39 320 260
0.0012501266 0.713 -0.025002534 7.4709737e-39 321 260
0.0025002533 0.713 -0.025002534 7.378425e-39 322 260
0.00376616 0.71600002 -0.025107734 7.2862293e-39 323 260
0.0050215465 0.71600002 -0.025107734 7.2855105e-39 324 260
0.0062769335 0.71600002 -0.025107734 7.3777061e-39 325 260
0.0075743999 0.72000003 -0.025248 7.7464858e-39 326 260
0.0088613462 0.722 -0.025318133 7.5617344e-39 327 260
0.010127253 0.722 -0.025318133 7.9280254e-39 328 260
0.01140894 0.72299999 -0.025353199 1.0509503e-38 329 260
0.012676599 0.72299999 -0.025353199 1.4840217e-38 330 260
-0.040340692 0.71899998 -0.02647358 1.7140806e-38 288 261
-0.039080046 0.71899998 -0.02647358 1.5020307e-38 289 261
-0.037819397 0.71899998 -0.02647358 9.0372793e-39 290 261
-0.036457058 0.71700001 -0.02639994 6.5479973e-39 291 261
-0.035150826 0.71600002 -0.026363119 7.3813327e-39 292 261
-0.03389544 0.71600002 -0.026363119 7.6579181e-39 293 261
-0.032548878 0.71399999 -0.026289478 7.9330603e-39 294 261
-0.031253166 0.713 -0.026252659 8.0252559e-39 295 261
-0.029918881 0.71100003 -0.026179021 7.7508144e-39 296 261
-0.028631933 0.70999998 -0.026142199 7.8430101e-39 297 261
-0.027387066 0.70999998 -0.026142199 7.9355588e-39 298 261
-0.026068559 0.708 -0.026068559 8.1203102e-39 299 261
-0.024792133 0.70700002 -0.02603174 8.0284747e-39 300 261
-0.023552528 0.70700002 -0.02603174 7.9362777e-39 301 261
-0.022312919 0.70700002 -0.02603174 8.2114226e-39 302 261
-0.021073313 0.70700002 -0.02603174 8.2114226e-39 303 261
-0.019833706 0.70700002 -0.02603174 8.3021707e-39 304 261
-0.018594101 0.70700002 -0.02603174 8.1181396e-39 305 261
-0.017354494 0.70700002 -0.02603174 7.842266e-39 306 261
-0.016114887 0.70700002 -0.02603174 7.6582334e-39 307 261
-0.014854239 0.70599997 -0.025994917 7.748634e-39 308 261
-0.013616386 0.70599997 -0.025994917 7.6564384e-39 309 261
-0.012378532 0.70599997 -0.025994917 7.4716884e-39 310 261
-0.011140679 0.70599997 -0.025994917 7.3794913e-39 311 261
-0.0099168532 0.70700002 -0.02603174 7.3787753e-39 312 261
-0.008677247 0.70700002 -0.02603174 7.2865797e-39 313 261
-0.0074481601 0.708 -0.026068559 7.1029115e-39 314 261
-0.0062067998 0.708 -0.026068559 7.0107158e-39 315 261
-0.0049794666 0.70999998 -0.026142199 7.1032674e-39 316 261
-0.0037345996 0.70999998 -0.026142199 7.195463e-39 317 261
-0.0024897333 0.70999998 -0.026142199 7.195463e-39 318 261
-0.00124662 0.71100003 -0.026179021 7.195463e-39 319 261
0 0.71100003 -0.026179021 7.1025611e-39 320 261
0.00124662 0.71100003 -0.026179021 7.1025611e-39 321 261
0.0025002533 0.713 -0.026252659 6.9178168e-39 322 261
0.0037556398 0.71399999 -0.026289478 7.0100124e-39 323 261
0.0050215465 0.71600002 -0.026363119 6.917814e-39 324 261
0.0062769335 0.71600002 -0.026363119 7.0100096e-39 325 261
0.0075743999 0.72000003 -0.026510401 7.1944064e-39 326 261
0.0088613462 0.722 -0.026584039 7.5628302e-39 327 261
0.010127253 0.722 -0.026584039 7.6528777e-39 328 261
0.01140894 0.72299999 -0.026620859 9.1283665e-39 329 261
0.012676599 0.72299999 -0.026620859 1.4103e-38 330 261
-0.041659199 0.72000003 -0.027772799 1.7601417e-38 287 262
-0.040340692 0.71899998 -0.027734226 1.6773101e-38 288 262
-0.039080046 0.71899998 -0.027734226 1.3546256e-38 289 262
-0.037714198 0.71700001 -0.027657079 7.9320065e-39 290 262
-0.036457058 0.71700001 -0.027657079 5.7193128e-39 291 262
-0.035150826 0.71600002 -0.027618507 7.2876909e-39 292 262
-0.03389544 0.71600002 -0.027618507 7.5642778e-39 293 262
-0.032503292 0.713 -0.027502786 7.6568307e-39 294 262
-0.031165501 0.71100003 -0.027425639 7.6568307e-39 295 262
-0.029876797 0.70999998 -0.027387066 7.4745877e-39 296 262
-0.02855128 0.708 -0.027309919 7.7508144e-39 297 262
-0.027309919 0.708 -0.027309919 7.8430101e-39 298 262
-0.026068559 0.708 -0.027309919 7.9355644e-39 299 262
-0.024792133 0.70700002 -0.027271347 7.751899e-39 300 262
-0.023552528 0.70700002 -0.027271347 7.751899e-39 301 262
-0.022281358 0.70599997 -0.027232772 8.1185235e-39 302 262
-0.021043506 0.70599997 -0.027232772 7.9344924e-39 303 262
-0.019833706 0.70700002 -0.027271347 7.9337609e-39 304 262
-0.018594101 0.70700002 -0.027271347 7.6575328e-39 305 262
-0.017354494 0.70700002 -0.027271347 7.7489997e-39 306 262
-0.016092092 0.70599997 -0.027232772 7.3805774e-39 307 262
-0.014854239 0.70599997 -0.027232772 7.5631679e-39 308 262
-0.013616386 0.70599997 -0.027232772 7.4709709e-39 309 262
-0.012378532 0.70599997 -0.027232772 7.2865797e-39 310 262
-0.011140679 0.70599997 -0.027232772 7.194384e-39 311 262
-0.0099168532 0.70700002 -0.027271347 7.193312e-39 312 262
-0.008677247 0.70700002 -0.027271347 7.193312e-39 313 262
-0.0074376399 0.70700002 -0.027271347 6.9174454e-39 314 262
-0.0062067998 0.708 -0.027309919 7.1018353e-39 315 262
-0.0049794666 0.70999998 -0.027387066 7.010713e-39 316 262
-0.0037345996 0.70999998 -0.027387066 7.010713e-39 317 262
-0.0024897333 0.70999998 -0.027387066 7.194384e-39 318 262
-0.0012448666 0.70999998 -0.027387066 7.194384e-39 319 262
0 0.71100003 -0.027425639 7.1014821e-39 320 262
0.00124662 0.71100003 -0.027425639 7.1014821e-39 321 262
0.0024932399 0.71100003 -0.027425639 6.9170979e-39 322 262
0.0037556398 0.71399999 -0.02754136 6.9170979e-39 323 262
0.0050215465 0.71600002 -0.027618507 7.1929589e-39 324 262
0.0062857 0.71700001 -0.027657079 7.1929589e-39 325 262
0.0075743999 0.72000003 -0.027772799 7.378069e-39 326 262
0.0088613462 0.722 -0.027849946 7.5628204e-39 327 262
0.010127253 0.722 -0.027849946 7.3780746e-39 328 262
0.01140894 0.72299999 -0.02788852 8.2078367e-39 329 262
0.012676599 0.72299999 -0.02788852 1.3365066e-38 330 262
-0.041659199 0.72000003 -0.029035201 1.7601414e-38 287 263
-0.040396802 0.72000003 -0.029035201 1.6313196e-38 288 263
-0.039080046 0.71899998 -0.028994869 1.2164393e-38 289 263
-0.037714198 0.71700001 -0.028914221 7.1955205e-39 290 263
-0.036457058 0.71700001 -0.028914221 6.1810098e-39 291 263
-0.035150826 0.71600002 -0.028873893 7.0118271e-39 292 263
-0.03389544 0.71600002 -0.028873893 7.1962183e-39 293 263
-0.032412119 0.71100003 -0.028672259 7.3798865e-39 294 263
-0.031121666 0.70999998 -0.028631933 7.4720821e-39 295 263
-0.029876797 0.70999998 -0.028631933 7.2898419e-39 296 263
-0.02855128 0.708 -0.02855128 7.4742345e-39 297 263
-0.027309919 0.708 -0.02855128 7.4742373e-39 298 263
-0.026068559 0.708 -0.02855128 7.6582685e-39 299 263
-0.024792133 0.70700002 -0.028510952 7.2920097e-39 300 263
-0.023552528 0.70700002 -0.028510952 7.2920097e-39 301 263
-0.022281358 0.70599997 -0.028470624 7.8419409e-39 302 263
-0.021043506 0.70599997 -0.028470624 7.7497452e-39 303 263
-0.019833706 0.70700002 -0.028510952 7.657537e-39 304 263
-0.018594101 0.70700002 -0.028510952 7.4727856e-39 305 263
-0.017354494 0.70700002 -0.028510952 7.288023e-39 306 263
-0.016092092 0.70599997 -0.028470624 7.195826e-39 307 263
-0.014854239 0.70599997 -0.028470624 7.1039835e-39 308 263
-0.013616386 0.70599997 -0.028470624 7.0117878e-39 309 263
-0.012378532 0.70599997 -0.028470624 7.1021856e-39 310 263
-0.011140679 0.70599997 -0.028470624 6.9181545e-39 311 263
-0.0099028256 0.70599997 -0.028470624 6.9174454e-39 312 263
-0.008677247 0.70700002 -0.028510952 6.7330527e-39 313 263
-0.0074376399 0.70700002 -0.028510952 6.7337716e-39 314 263
-0.0061980332 0.70700002 -0.028510952 6.7337716e-39 315 263
-0.0049654399 0.708 -0.02855128 6.8263218e-39 316 263
-0.0037345996 0.70999998 -0.028631933 6.8263218e-39 317 263
-0.0024897333 0.70999998 -0.028631933 6.9178013e-39 318 263
-0.0012448666 0.70999998 -0.028631933 6.9178013e-39 319 263
0 0.70999998 -0.028631933 6.8252526e-39 320 263
0.00124662 0.71100003 -0.028672259 6.8252526e-39 321 263
0.0024932399 0.71100003 -0.028672259 6.7327024e-39 322 263
0.0037503797 0.713 -0.028752912 6.8248995e-39 323 263
0.0050215465 0.71600002 -0.028873893 7.0085676e-39 324 263
0.0062857 0.71700001 -0.028914221 7.1929589e-39 325 263
0.0075743999 0.72000003 -0.029035201 7.2858734e-39 326 263
0.0088613462 0.722 -0.029115854 7.5628204e-39 327 263
0.010127253 0.722 -0.029115854 8.0219965e-39 328 263
0.01140894 0.72299999 -0.029156178 8.1141921e-39 329 263
0.012676599 0.72299999 -0.029156178 1.2903359e-38 330 263
-0.040396802 0.72000003 -0.0302976 1.5760023e-38 288 264
-0.039134402 0.72000003 -0.0302976 1.0689263e-38 289 264
-0.037819397 0.71899998 -0.030255521 6.5508699e-39 290 264
-0.036558751 0.71899998 -0.030255521 6.3661199e-39 291 264
-0.035150826 0.71600002 -0.03012928 6.735966e-39 292 264
-0.033800758 0.71399999 -0.030045118 6.8281617e-39 293 264
-0.032366529 0.70999998 -0.029876797 7.0118299e-39 294 264
-0.031034 0.708 -0.02979264 7.1040255e-39 295 264
-0.02979264 0.708 -0.02979264 7.1972931e-39 296 264
-0.02855128 0.708 -0.02979264 7.2894888e-39 297 264
-0.027271347 0.70700002 -0.029750559 7.0143466e-39 298 264
-0.02603174 0.70700002 -0.029750559 7.0143466e-39 299 264
-0.024792133 0.70700002 -0.029750559 7.1072653e-39 300 264
-0.023552528 0.70700002 -0.029750559 7.1994609e-39 301 264
-0.022281358 0.70599997 -0.029708479 7.3816886e-39 302 264
-0.021043506 0.70599997 -0.029708479 7.3816886e-39 303 264
-0.019833706 0.70700002 -0.029750559 7.1969274e-39 304 264
-0.018594101 0.70700002 -0.029750559 7.104373e-39 305 264
-0.017354494 0.70700002 -0.029750559 7.0125165e-39 306 264
-0.016092092 0.70599997 -0.029708479 6.9203209e-39 307 264
-0.014854239 0.70599997 -0.029708479 7.0117878e-39 308 264
-0.013616386 0.70599997 -0.029708479 6.9195922e-39 309 264
-0.012378532 0.70599997 -0.029708479 7.1011108e-39 310 264
-0.011140679 0.70599997 -0.029708479 7.0089138e-39 311 264
-0.0099028256 0.70599997 -0.029708479 7.0085606e-39 312 264
-0.0086649731 0.70599997 -0.029708479 6.916365e-39 313 264
-0.0074271196 0.70599997 -0.029708479 6.7337716e-39 314 264
-0.0061980332 0.70700002 -0.029750559 6.5497405e-39 315 264
-0.0049654399 0.708 -0.02979264 6.550095e-39 316 264
-0.00372408 0.708 -0.02979264 6.7341247e-39 317 264
-0.00248272 0.708 -0.02979264 6.7337716e-39 318 264
-0.0012448666 0.70999998 -0.029876797 6.5497405e-39 319 264
0 0.70999998 -0.029876797 6.5493874e-39 320 264
0.0012448666 0.70999998 -0.029876797 6.4571917e-39 321 264
0.0024932399 0.71100003 -0.029918881 6.4571945e-39 322 264
0.0037503797 0.713 -0.030003037 6.4571945e-39 323 264
0.0050215465 0.71600002 -0.03012928 6.9160147e-39 324 264
0.0062857 0.71700001 -0.030171359 7.1929617e-39 325 264
0.0075743999 0.72000003 -0.0302976 7.2858734e-39 326 264
0.0088613462 0.722 -0.030381758 7.5628204e-39 327 264
0.010127253 0.722 -0.030381758 8.1145425e-39 328 264
0.01140894 0.72299999 -0.030423839 7.7457599e-39 329 264
0.012676599 0.72299999 -0.030423839 1.2350172e-38 330 264
-0.041659199 0.72000003 -0.03156 1.7600698e-38 287 265
-0.040396802 0.72000003 -0.03156 1.5298321e-38 288 265
-0.039134402 0.72000003 -0.03156 9.5821924e-39 289 265
-0.037819397 0.71899998 -0.031516165 5.4452398e-39 290 265
-0.036558751 0.71899998 -0.031516165 5.5377942e-39 291 265
-0.035150826 0.71600002 -0.031384666 6.5512076e-39 292 265
-0.033800758 0.71399999 -0.031296998 6.6434033e-39 293 265
-0.032366529 0.70999998 -0.031121666 6.8267127e-39 294 265
-0.031034 0.708 -0.031034 7.1954953e-39 295 265
-0.02979264 0.708 -0.031034 7.0129019e-39 296 265
-0.028510952 0.70700002 -0.030990168 7.0129019e-39 297 265
-0.027271347 0.70700002 -0.030990168 6.9214293e-39 298 265
-0.02603174 0.70700002 -0.030990168 7.0136249e-39 299 265
-0.024757065 0.70599997 -0.030946331 6.922151e-39 300 265
-0.023519212 0.70599997 -0.030946331 6.922151e-39 301 265
-0.022281358 0.70599997 -0.030946331 7.1040227e-39 302 265
-0.021043506 0.70599997 -0.030946331 7.0118271e-39 303 265
-0.019805651 0.70599997 -0.030946331 6.9199818e-39 304 265
-0.018567799 0.70599997 -0.030946331 6.9199818e-39 305 265
-0.017354494 0.70700002 -0.030990168 7.1032772e-39 306 265
-0.016092092 0.70599997 -0.030946331 7.0110816e-39 307 265
-0.014854239 0.70599997 -0.030946331 6.7352079e-39 308 265
-0.013616386 0.70599997 -0.030946331 6.6426536e-39 309 265
-0.012378532 0.70599997 -0.030946331 7.0089138e-39 310 265
-0.011140679 0.70599997 -0.030946331 7.0089138e-39 311 265
-0.0099028256 0.70599997 -0.030946331 6.7334087e-39 312 265
-0.0086649731 0.70599997 -0.030946331 6.6408543e-39 313 265
-0.0074271196 0.70599997 -0.030946331 6.4575421e-39 314 265
-0.0061980332 0.70700002 -0.030990168 6.4575421e-39 315 265
-0.0049584266 0.70700002 -0.030990168 6.641213e-39 316 265
-0.00372408 0.708 -0.031034 6.7334073e-39 317 265
-0.00248272 0.708 -0.031034 6.7326898e-39 318 265
-0.00124136 0.708 -0.031034 6.7326898e-39 319 265
0 0.70999998 -0.031121666 6.3649933e-39 320 265
0.0012448666 0.70999998 -0.031121666 6.2727977e-39 321 265
0.0024932399 0.71100003 -0.031165501 6.4557568e-39 322 265
0.0037503797 0.713 -0.031253166 6.5483112e-39 323 265
0.0050285598 0.71700001 -0.031428497 6.9160147e-39 324 265
0.0062857 0.71700001 -0.031428497 7.1004073e-39 325 265
0.0075638802 0.71899998 -0.031516165 7.3777033e-39 326 265
0.0088367993 0.72000003 -0.03156 7.65393e-39 327 265
0.010127253 0.722 -0.031647664 8.0219755e-39 328 265
0.01140894 0.72299999 -0.031691495 8.0219755e-39 329 265
0.012676599 0.72299999 -0.031691495 1.2442725e-38 330 265
-0.042921603 0.72000003 -0.0328224 1.713936e-38 286 266
-0.041659199 0.72000003 -0.0328224 1.7323753e-38 287 266
-0.040396802 0.72000003 -0.0328224 1.4837696e-38 288 266
-0.039080046 0.71899998 -0.032776814 9.0293732e-39 289 266
-0.037819397 0.71899998 -0.032776814 5.9036971e-39 290 266
-0.036558751 0.71899998 -0.032776814 6.1806427e-39 291 266
-0.035150826 0.71600002 -0.032640055 6.0905994e-39 292 266
-0.033800758 0.71399999 -0.032548878 6.0905994e-39 293 266
-0.032412119 0.71100003 -0.032412119 5.9987639e-39 294 266
-0.031034 0.708 -0.03227536 6.2757096e-39 295 266
-0.029750559 0.70700002 -0.032229774 6.2764284e-39 296 266
-0.028470624 0.70599997 -0.032184184 6.4608211e-39 297 266
-0.027232772 0.70599997 -0.032184184 6.5533727e-39 298 266
-0.025994917 0.70599997 -0.032184184 6.5533727e-39 299 266
-0.024757065 0.70599997 -0.032184184 6.7366849e-39 300 266
-0.023519212 0.70599997 -0.032184184 6.4604568e-39 301 266
-0.022218239 0.704 -0.032093015 6.3682583e-39 302 266
-0.020983893 0.704 -0.032093015 6.2760627e-39 303 266
-0.019805651 0.70599997 -0.032184184 6.276413e-39 304 266
-0.018567799 0.70599997 -0.032184184 6.276413e-39 305 266
-0.017329946 0.70599997 -0.032184184 6.4604315e-39 306 266
-0.016092092 0.70599997 -0.032184184 6.4604315e-39 307 266
-0.014854239 0.70599997 -0.032184184 6.3667926e-39 308 266
-0.013616386 0.70599997 -0.032184184 6.3667926e-39 309 266
-0.012378532 0.70599997 -0.032184184 6.4582609e-39 310 266
-0.011140679 0.70599997 -0.032184184 6.3660653e-39 311 266
-0.0099028256 0.70599997 -0.032184184 6.4575421e-39 312 266
-0.0086649731 0.70599997 -0.032184184 6.3653478e-39 313 266
-0.0074271196 0.70599997 -0.032184184 6.3653478e-39 314 266
-0.0061892662 0.70599997 -0.032184184 6.3653478e-39 315 266
-0.0049584266 0.70700002 -0.032229774 6.4579008e-39 316 266
-0.0037188199 0.70700002 -0.032229774 6.3653478e-39 317 266
-0.0024792133 0.70700002 -0.032229774 6.5486615e-39 318 266
-0.00124136 0.708 -0.03227536 6.5486615e-39 319 266
0 0.70999998 -0.032366529 6.2727977e-39 320 266
0.0012448666 0.70999998 -0.032366529 6.2727977e-39 321 266
0.0024932399 0.71100003 -0.032412119 6.2724445e-39 322 266
0.0037503797 0.713 -0.032503292 6.3646402e-39 323 266
0.0050215465 0.71600002 -0.032640055 6.5493902e-39 324 266
0.0062857 0.71700001 -0.032685637 6.917814e-39 325 266
0.0075638802 0.71899998 -0.032776814 7.2855105e-39 326 266
0.0088245263 0.71899998 -0.032776814 7.7461299e-39 327 266
0.010099201 0.72000003 -0.0328224 7.7468333e-39 328 266
0.01140894 0.72299999 -0.032959159 8.3000057e-39 329 266
-0.042921603 0.72000003 -0.034084801 1.6956048e-38 286 267
-0.041659199 0.72000003 -0.034084801 1.714044e-38 287 267
-0.040340692 0.71899998 -0.03403746 1.4378513e-38 288 267
-0.039080046 0.71899998 -0.03403746 8.9389726e-39 289 267
-0.037819397 0.71899998 -0.03403746 6.4565051e-39 290 267
-0.036457058 0.71700001 -0.033942781 6.3643081e-39 291 267
-0.035150826 0.71600002 -0.03389544 5.9987527e-39 292 267
-0.033800758 0.71399999 -0.033800758 5.8140027e-39 293 267
-0.032412119 0.71100003 -0.033658739 6.0887974e-39 294 267
-0.031034 0.708 -0.033516716 6.3653857e-39 295 267
-0.029750559 0.70700002 -0.033469379 6.3668234e-39 296 267
-0.028470624 0.70599997 -0.033422034 6.5515734e-39 297 267
-0.027232772 0.70599997 -0.033422034 6.5515678e-39 298 267
-0.025994917 0.70599997 -0.033422034 6.5515678e-39 299 267
-0.024757065 0.70599997 -0.033422034 6.5519237e-39 300 267
-0.023519212 0.70599997 -0.033422034 6.4597281e-39 301 267
-0.022218239 0.704 -0.03332736 6.550479e-39 302 267
-0.020983893 0.704 -0.03332736 6.6426746e-39 303 267
-0.019805651 0.70599997 -0.033422034 6.4604315e-39 304 267
-0.018567799 0.70599997 -0.033422034 6.3678772e-39 305 267
-0.017329946 0.70599997 -0.033422034 6.3678674e-39 306 267
-0.016092092 0.70599997 -0.033422034 6.2756703e-39 307 267
-0.014854239 0.70599997 -0.033422034 6.4586183e-39 308 267
-0.013616386 0.70599997 -0.033422034 6.2738711e-39 309 267
-0.012378532 0.70599997 -0.033422034 6.3660653e-39 310 267
-0.011140679 0.70599997 -0.033422034 6.2738711e-39 311 267
-0.0099028256 0.70599997 -0.033422034 6.3657122e-39 312 267
-0.0086649731 0.70599997 -0.033422034 6.3657122e-39 313 267
-0.0074271196 0.70599997 -0.033422034 6.2735137e-39 314 267
-0.0061892662 0.70599997 -0.033422034 6.3660681e-39 315 267
-0.0049584266 0.70700002 -0.033469379 6.4575421e-39 316 267
-0.0037188199 0.70700002 -0.033469379 6.3653478e-39 317 267
-0.0024792133 0.70700002 -0.033469379 6.7312549e-39 318 267
-0.00124136 0.708 -0.033516716 6.8238078e-39 319 267
0 0.70999998 -0.033611398 6.2727977e-39 320 267
0.0012448666 0.70999998 -0.033611398 6.2727977e-39 321 267
0.0024932399 0.71100003 -0.033658739 6.2728005e-39 322 267
0.0037503797 0.713 -0.033753417 6.3649961e-39 323 267
0.0050075199 0.71399999 -0.033800758 6.916365e-39 324 267
0.0062769335 0.71600002 -0.03389544 7.1011164e-39 325 267
0.0075638802 0.71899998 -0.03403746 7.7450369e-39 326 267
0.0088245263 0.71899998 -0.03403746 7.8372325e-39 327 267
0.010099201 0.72000003 -0.034084801 8.5733528e-39 328 267
0.011361601 0.72000003 -0.034084801 9.4031135e-39 329 267
-0.042921603 0.72000003 -0.035347197 1.6956045e-38 286 268
-0.041659199 0.72000003 -0.035347197 1.7324827e-38 287 268
-0.040340692 0.71899998 -0.035298105 1.4469987e-38 288 268
-0.039080046 0.71899998 -0.035298105 9.2148364e-39 289 268
-0.037714198 0.71700001 -0.035199918 7.0075139e-39 290 268
-0.036457058 0.71700001 -0.035199918 6.730927e-39 291 268
-0.035150826 0.71600002 -0.035150826 5.9980339e-39 292 268
-0.033800758 0.71399999 -0.035052639 5.9058382e-39 293 268
-0.032412119 0.71100003 -0.034905359 5.8136524e-39 294 268
-0.031034 0.708 -0.034758076 5.905848e-39 295 268
-0.029750559 0.70700002 -0.034708988 5.8147356e-39 296 268
-0.028470624 0.70599997 -0.034659892 6.0909624e-39 297 268
-0.027232772 0.70599997 -0.034659892 5.9991199e-39 298 268
-0.025994917 0.70599997 -0.034659892 6.0913155e-39 299 268
-0.024757065 0.70599997 -0.034659892 6.0913127e-39 300 268
-0.023519212 0.70599997 -0.034659892 6.0913127e-39 301 268
-0.022281358 0.70599997 -0.034659892 6.1842174e-39 302 268
-0.021043506 0.70599997 -0.034659892 6.0920218e-39 303 268
-0.019833706 0.70700002 -0.034708988 5.9991003e-39 304 268
-0.018567799 0.70599997 -0.034659892 5.9991003e-39 305 268
-0.017329946 0.70599997 -0.034659892 5.8147062e-39 306 268
-0.016092092 0.70599997 -0.034659892 5.8147062e-39 307 268
-0.014854239 0.70599997 -0.034659892 5.9054599e-39 308 268
-0.013616386 0.70599997 -0.034659892 5.7214288e-39 309 268
-0.012378532 0.70599997 -0.034659892 5.7214288e-39 310 268
-0.011140679 0.70599997 -0.034659892 5.9054599e-39 311 268
-0.0099028256 0.70599997 -0.034659892 5.8150621e-39 312 268
-0.0086649731 0.70599997 -0.034659892 5.8150621e-39 313 268
-0.0074271196 0.70599997 -0.034659892 6.2735193e-39 314 268
-0.0061892662 0.70599997 -0.034659892 6.2735193e-39 315 268
-0.0049584266 0.70700002 -0.034708988 6.3649933e-39 316 268
-0.0037188199 0.70700002 -0.034708988 6.180602e-39 317 268
-0.0024792133 0.70700002 -0.034708988 6.4561099e-39 318 268
-0.00124136 0.708 -0.034758076 6.4561099e-39 319 268
0 0.70999998 -0.034856264 6.4561099e-39 320 268
0.0012448666 0.70999998 -0.034856264 6.4561099e-39 321 268
0.0024932399 0.71100003 -0.034905359 6.4561127e-39 322 268
0.0037503797 0.713 -0.035003547 6.640504e-39 323 268
0.0050075199 0.71399999 -0.035052639 6.9163706e-39 324 268
0.0062769335 0.71600002 -0.035150826 7.1007633e-39 325 268
0.0075428397 0.71700001 -0.035199918 7.2855105e-39 326 268
0.0088245263 0.71899998 -0.035298105 7.7461299e-39 327 268
0.010127253 0.722 -0.035445385 8.3900531e-39 328 268
0.01139316 0.722 -0.035445385 9.4045652e-39 329 268
-0.042921603 0.72000003 -0.036609601 1.6680181e-38 286 269
-0.041659199 0.72000003 -0.036609601 1.7233355e-38 287 269
-0.040340692 0.71899998 -0.036558751 1.4837331e-38 288 269
-0.039080046 0.71899998 -0.036558751 9.4896254e-39 289 269
-0.037714198 0.71700001 -0.036457058 7.3744985e-39 290 269
-0.036457058 0.71700001 -0.036457058 7.2823029e-39 291 269
-0.035150826 0.71600002 -0.036406212 5.9061984e-39 292 269
-0.033800758 0.71399999 -0.036304519 5.8140027e-39 293 269
-0.032412119 0.71100003 -0.036151983 5.7218099e-39 294 269
-0.031034 0.708 -0.03599944 5.8140055e-39 295 269
-0.029708479 0.70599997 -0.035897743 5.7228917e-39 296 269
-0.028470624 0.70599997 -0.035897743 5.8150887e-39 297 269
-0.027232772 0.70599997 -0.035897743 5.8150845e-39 298 269
-0.025994917 0.70599997 -0.035897743 5.8150845e-39 299 269
-0.024757065 0.70599997 -0.035897743 5.815802e-39 300 269
-0.023519212 0.70599997 -0.035897743 5.9083564e-39 301 269
-0.022281358 0.70599997 -0.035897743 6.092019e-39 302 269
-0.021043506 0.70599997 -0.035897743 6.092019e-39 303 269
-0.019833706 0.70700002 -0.035948593 5.9983842e-39 304 269
-0.018594101 0.70700002 -0.035948593 5.8139929e-39 305 269
-0.017354494 0.70700002 -0.035948593 5.7210756e-39 306 269
-0.016092092 0.70599997 -0.035897743 5.5363242e-39 307 269
-0.014854239 0.70599997 -0.035897743 5.7199924e-39 308 269
-0.013616386 0.70599997 -0.035897743 5.6277968e-39 309 269
-0.012378532 0.70599997 -0.035897743 5.5366774e-39 310 269
-0.011140679 0.70599997 -0.035897743 5.628873e-39 311 269
-0.0099028256 0.70599997 -0.035897743 5.6295933e-39 312 269
-0.0086649731 0.70599997 -0.035897743 5.7221476e-39 313 269
-0.0074271196 0.70599997 -0.035897743 5.9969367e-39 314 269
-0.0061892662 0.70599997 -0.035897743 5.9969367e-39 315 269
-0.0049584266 0.70700002 -0.035948593 6.0880533e-39 316 269
-0.0037188199 0.70700002 -0.035948593 6.0880533e-39 317 269
-0.0024792133 0.70700002 -0.035948593 6.179886e-39 318 269
-0.00124136 0.708 -0.03599944 6.179886e-39 319 269
0 0.70999998 -0.036101133 6.2720816e-39 320 269
0.0012448666 0.70999998 -0.036101133 6.2720816e-39 321 269
0.0024932399 0.71100003 -0.036151983 6.5475923e-39 322 269
0.0037503797 0.713 -0.036253672 6.6397879e-39 323 269
0.0050075199 0.71399999 -0.036304519 6.9152958e-39 324 269
0.0062769335 0.71600002 -0.036406212 7.0996885e-39 325 269
0.0075428397 0.71700001 -0.036457058 7.2851545e-39 326 269
0.0088245263 0.71899998 -0.036558751 7.8383283e-39 327 269
0.010085173 0.71899998 -0.036558751 8.5733724e-39 328 269
-0.043040827 0.722 -0.0379772 1.6862777e-38 286 270
-0.041659199 0.72000003 -0.037871998 1.7415951e-38 287 270
-0.040340692 0.71899998 -0.037819397 1.5389067e-38 288 270
-0.039080046 0.71899998 -0.037819397 1.0133916e-38 289 270
-0.037714198 0.71700001 -0.037714198 7.3744957e-39 290 270
-0.036457058 0.71700001 -0.037714198 7.0057118e-39 291 270
-0.035150826 0.71600002 -0.037661601 5.8140027e-39 292 270
-0.033800758 0.71399999 -0.037556399 5.7218071e-39 293 270
-0.032412119 0.71100003 -0.037398599 5.7218099e-39 294 270
-0.031034 0.708 -0.0372408 5.5377788e-39 295 270
-0.029708479 0.70599997 -0.037135597 5.5381445e-39 296 270
-0.028470624 0.70599997 -0.037135597 5.6303402e-39 297 270
-0.027232772 0.70599997 -0.037135597 5.6310562e-39 298 270
-0.025994917 0.70599997 -0.037135597 5.723612e-39 299 270
-0.024686933 0.704 -0.037030395 5.816874e-39 300 270
-0.023452586 0.704 -0.037030395 6.001624e-39 301 270
-0.022281358 0.70599997 -0.037135597 6.36788e-39 302 270
-0.021043506 0.70599997 -0.037135597 6.1838488e-39 303 270
-0.019805651 0.70599997 -0.037135597 5.9987373e-39 304 270
-0.018594101 0.70700002 -0.037188202 5.6295961e-39 305 270
-0.017354494 0.70700002 -0.037188202 5.4448503e-39 306 270
-0.016092092 0.70599997 -0.037135597 5.2608192e-39 307 270
-0.014854239 0.70599997 -0.037135597 5.3519358e-39 308 270
-0.013616386 0.70599997 -0.037135597 5.3519358e-39 309 270
-0.012378532 0.70599997 -0.037135597 5.1686179e-39 310 270
-0.011140679 0.70599997 -0.037135597 5.2608135e-39 311 270
-0.0099028256 0.70599997 -0.037135597 5.4452006e-39 312 270
-0.0086649731 0.70599997 -0.037135597 5.5373962e-39 313 270
-0.0074271196 0.70599997 -0.037135597 5.812544e-39 314 270
-0.0061892662 0.70599997 -0.037135597 5.812544e-39 315 270
-0.0049584266 0.70700002 -0.037188202 5.7199924e-39 316 270
-0.0037188199 0.70700002 -0.037188202 5.7199924e-39 317 270
-0.00248272 0.708 -0.0372408 5.811472e-39 318 270
-0.00124136 0.708 -0.0372408 5.9036676e-39 319 270
0 0.70999998 -0.037345998 6.0869799e-39 320 270
0.00124662 0.71100003 -0.037398599 6.1791769e-39 321 270
0.0024932399 0.71100003 -0.037398599 6.4550435e-39 322 270
0.0037503797 0.713 -0.037503798 6.5472392e-39 323 270
0.0050075199 0.71399999 -0.037556399 6.8227471e-39 324 270
0.0062769335 0.71600002 -0.037661601 7.0074971e-39 325 270
0.0075428397 0.71700001 -0.037714198 7.4684696e-39 326 270
0.0087999795 0.71700001 -0.037714198 7.9294477e-39 327 270
0.01005712 0.71700001 -0.037714198 8.4811796e-39 328 270
-0.043040827 0.722 -0.039243106 1.686313e-38 286 271
-0.041659199 0.72000003 -0.039134402 1.7324109e-38 287 271
-0.040340692 0.71899998 -0.039080046 1.5941873e-38 288 271
-0.039080046 0.71899998 -0.039080046 1.1332092e-38 289 271
-0.037714198 0.71700001 -0.038971342 7.6499966e-39 290 271
-0.036457058 0.71700001 -0.038971342 7.0046272e-39 291 271
-0.035150826 0.71600002 -0.038916986 6.0891449e-39 292 271
-0.03389544 0.71600002 -0.038916986 5.9047536e-39 293 271
-0.032503292 0.713 -0.038753927 5.6288954e-39 294 271
-0.031121666 0.70999998 -0.038590867 5.5363411e-39 295 271
-0.029708479 0.70599997 -0.038373452 5.4448741e-39 296 271
-0.028470624 0.70599997 -0.038373452 5.5370697e-39 297 271
-0.027232772 0.70599997 -0.038373452 5.5392165e-39 298 271
-0.02592128 0.704 -0.038264744 5.8158048e-39 299 271
-0.024686933 0.704 -0.038264744 6.0009023e-39 300 271
-0.023452586 0.704 -0.038264744 6.1849335e-39 301 271
-0.022218239 0.704 -0.038264744 6.4593567e-39 302 271
-0.020983893 0.704 -0.038264744 6.2749655e-39 303 271
-0.019805651 0.70599997 -0.038373452 5.9065389e-39 304 271
-0.018567799 0.70599997 -0.038373452 5.6295933e-39 305 271
-0.017329946 0.70599997 -0.038373452 5.4441314e-39 306 271
-0.016092092 0.70599997 -0.038373452 5.2597402e-39 307 271
-0.014854239 0.70599997 -0.038373452 5.0753559e-39 308 271
-0.013616386 0.70599997 -0.038373452 5.0753559e-39 309 271
-0.012378532 0.70599997 -0.038373452 4.9838735e-39 310 271
-0.011140679 0.70599997 -0.038373452 5.0760692e-39 311 271
-0.0099028256 0.70599997 -0.038373452 5.1686207e-39 312 271
-0.0086649731 0.70599997 -0.038373452 5.2608164e-39 313 271
-0.0074271196 0.70599997 -0.038373452 5.4444845e-39 314 271
-0.0061892662 0.70599997 -0.038373452 5.4444845e-39 315 271
-0.0049584266 0.70700002 -0.038427804 5.4434125e-39 316 271
-0.0037188199 0.70700002 -0.038427804 5.4434125e-39 317 271
-0.00248272 0.708 -0.038482159 5.6274465e-39 318 271
-0.00124136 0.708 -0.038482159 5.7196421e-39 319 271
0 0.70999998 -0.038590867 5.9033145e-39 320 271
0.00124662 0.71100003 -0.038645219 5.9033145e-39 321 271
0.0024932399 0.71100003 -0.038645219 6.2713782e-39 322 271
0.0037556398 0.71399999 -0.038808275 6.4554093e-39 323 271
0.0050215465 0.71600002 -0.038916986 6.6394376e-39 324 271
0.0062769335 0.71600002 -0.038916986 7.0078614e-39 325 271
0.0075428397 0.71700001 -0.038971342 7.2862293e-39 326 271
0.0087999795 0.71700001 -0.038971342 7.193675e-39 327 271
0.010085173 0.71899998 -0.039080046 9.2144258e-39 328 271
-0.041659199 0.72000003 -0.040396802 1.7324109e-38 287 272
-0.040340692 0.71899998 -0.040340692 1.6311379e-38 288 272
-0.038971342 0.71700001 -0.040228479 1.2807945e-38 289 272
-0.037714198 0.71700001 -0.040228479 8.8456657e-39 290 272
-0.036457058 0.71700001 -0.040228479 7.1857843e-39 291 272
-0.035150826 0.71600002 -0.040172372 5.9980283e-39 292 272
-0.03389544 0.71600002 -0.040172372 5.6292457e-39 293 272
-0.032503292 0.713 -0.040004052 5.4441468e-39 294 272
-0.031121666 0.70999998 -0.039835732 5.2601157e-39 295 272
-0.029708479 0.70599997 -0.039611302 5.4430748e-39 296 272
-0.028470624 0.70599997 -0.039611302 5.6274675e-39 297 272
-0.027232772 0.70599997 -0.039611302 5.8140055e-39 298 272
-0.02592128 0.704 -0.039499093 6.0905938e-39 299 272
-0.024686933 0.704 -0.039499093 6.3678828e-39 300 272
-0.023452586 0.704 -0.039499093 6.4600784e-39 301 272
-0.022218239 0.704 -0.039499093 6.367517e-39 302 272
-0.020983893 0.704 -0.039499093 5.9987345e-39 303 272
-0.019805651 0.70599997 -0.039611302 5.7214288e-39 304 272
-0.018567799 0.70599997 -0.039611302 5.5366774e-39 305 272
-0.017329946 0.70599997 -0.039611302 5.3512169e-39 306 272
-0.016092092 0.70599997 -0.039611302 5.2590213e-39 307 272
-0.014854239 0.70599997 -0.039611302 4.9828001e-39 308 272
-0.013616386 0.70599997 -0.039611302 4.8906045e-39 309 272
-0.012378532 0.70599997 -0.039611302 4.9831561e-39 310 272
-0.011140679 0.70599997 -0.039611302 5.0753531e-39 311 272
-0.0099028256 0.70599997 -0.039611302 5.0753503e-39 312 272
-0.0086649731 0.70599997 -0.039611302 5.0753503e-39 313 272
-0.0074376399 0.70700002 -0.039667413 5.0764223e-39 314 272
-0.0061980332 0.70700002 -0.039667413 5.1686179e-39 315 272
-0.0049584266 0.70700002 -0.039667413 5.2597374e-39 316 272
-0.00372408 0.708 -0.039723519 5.2597374e-39 317 272
-0.00248272 0.708 -0.039723519 5.6267276e-39 318 272
-0.0012448666 0.70999998 -0.039835732 5.7189232e-39 319 272
0 0.70999998 -0.039835732 5.7189232e-39 320 272
0.00124662 0.71100003 -0.039891839 5.9033145e-39 321 272
0.0025002533 0.713 -0.040004052 6.2717313e-39 322 272
0.0037556398 0.71399999 -0.040060159 6.547958e-39 323 272
0.0050215465 0.71600002 -0.040172372 6.7327052e-39 324 272
0.0062769335 0.71600002 -0.040172372 6.9170979e-39 325 272
0.0075428397 0.71700001 -0.040228479 7.7457627e-39 326 272
0.0088245263 0.71899998 -0.040340692 6.9160021e-39 327 272
0.010085173 0.71899998 -0.040340692 9.9505587e-39 328 272
-0.040340692 0.71899998 -0.041601337 1.68642e-38 288 273
-0.038971342 0.71700001 -0.041485619 1.4282722e-38 289 273
-0.037714198 0.71700001 -0.041485619 1.0594511e-38 290 273
-0.036457058 0.71700001 -0.041485619 7.8282838e-39 291 273
-0.035150826 0.71600002 -0.041427758 6.4554065e-39 292 273
-0.03389544 0.71600002 -0.041427758 6.2713754e-39 293 273
-0.032548878 0.71399999 -0.041312039 5.4434252e-39 294 273
-0.031165501 0.71100003 -0.041138459 5.4434252e-39 295 273
-0.029708479 0.70599997 -0.040849157 5.350882e-39 296 273
-0.028470624 0.70599997 -0.040849157 5.5352733e-39 297 273
-0.027232772 0.70599997 -0.040849157 5.3537505e-39 298 273
-0.02592128 0.704 -0.040733438 5.7228917e-39 299 273
-0.024686933 0.704 -0.040733438 5.8157908e-39 300 273
-0.023452586 0.704 -0.040733438 5.9998233e-39 301 273
-0.022218239 0.704 -0.040733438 5.9983814e-39 302 273
-0.020983893 0.704 -0.040733438 5.7217945e-39 303 273
-0.019805651 0.70599997 -0.040849157 5.6274437e-39 304 273
-0.018567799 0.70599997 -0.040849157 5.3512169e-39 305 273
-0.017329946 0.70599997 -0.040849157 4.8913234e-39 306 273
