# .PCD v.7 - Point Cloud Data file format
FIELDS x y z rgb imX imY
SIZE 4 4 4 4 4 4
TYPE F F F F F F
COUNT 1 1 1 1 1 1
WIDTH 847
HEIGHT 1
VIEWPOINT 0 0 0 1 0 0 0
POINTS 847
DATA ascii
-0.014854239 0.70599997 0.012378532 3.218215e-39 308 230
-0.013616386 0.70599997 0.012378532 3.3104107e-39 309 230
-0.012343466 0.704 0.012343466 4.0436821e-39 310 230
-0.011109119 0.704 0.012343466 3.9514865e-39 311 230
-0.0099028256 0.70599997 0.012378532 4.0447513e-39 312 230
-0.0086404262 0.704 0.012343466 4.5979251e-39 313 230
-0.0074060797 0.704 0.012343466 5.8864933e-39 314 230
-0.0061717331 0.704 0.012343466 6.0712447e-39 315 230
-0.0049373866 0.704 0.012343466 5.3361936e-39 316 230
-0.0037030398 0.704 0.012343466 5.4283892e-39 317 230
-0.0024757064 0.70599997 0.012378532 7.4559644e-39 318 230
-0.0012343467 0.704 0.012343466 8.7467032e-39 319 230
0 0.704 0.012343466 1.0123154e-38 320 230
0.0012343467 0.704 0.012343466 1.0123154e-38 321 230
0.0024686933 0.704 0.012343466 9.9376906e-39 322 230
0.0037135598 0.70599997 0.012378532 9.4770712e-39 323 230
0.0049514128 0.70599997 0.012378532 8.7416712e-39 324 230
0.0061892662 0.70599997 0.012378532 8.7416712e-39 325 230
0.0074271196 0.70599997 0.012378532 8.280693e-39 326 230
0.0086649731 0.70599997 0.012378532 7.7275192e-39 327 230
0.0099168532 0.70700002 0.012396066 6.8992047e-39 328 230
0.011156459 0.70700002 0.012396066 6.8070077e-39 329 230
0.012396066 0.70700002 0.012396066 6.0741146e-39 330 230
0.013635674 0.70700002 0.012396066 6.4425384e-39 331 230
0.01487528 0.70700002 0.012396066 7.3652037e-39 332 230
0.016114887 0.70700002 0.012396066 8.6559425e-39 333 230
0.017354494 0.70700002 0.012396066 9.022539e-39 334 230
0.0186204 0.708 0.0124136 9.2069303e-39 335 230
0.01986176 0.708 0.0124136 1.0031646e-38 336 230
0.021162732 0.70999998 0.012448666 9.2018856e-39 337 230
0.022407599 0.70999998 0.012448666 7.7264122e-39 338 230
0.023652466 0.70999998 0.012448666 6.3434764e-39 339 230
0.024932399 0.71100003 0.0124662 2.6671867e-39 340 230
0.026179021 0.71100003 0.0124662 2.2065686e-39 341 230
-0.037661601 0.71600002 0.01129848 7.2773409e-39 290 231
-0.036406212 0.71600002 0.01129848 6.8163627e-39 291 231
-0.035003547 0.713 0.011251139 8.100636e-39 292 231
-0.033753417 0.713 0.011251139 8.2850286e-39 293 231
-0.032412119 0.71100003 0.01121958 8.5605267e-39 294 231
-0.031165501 0.71100003 0.01121958 8.5605267e-39 295 231
-0.029918881 0.71100003 0.01121958 8.6516391e-39 296 231
-0.028631933 0.70999998 0.011203799 8.3754124e-39 297 231
-0.027387066 0.70999998 0.011203799 8.5587246e-39 298 231
-0.026142199 0.70999998 0.011203799 8.2821392e-39 299 231
-0.024827199 0.708 0.01117224 8.2824951e-39 300 231
-0.023585839 0.708 0.01117224 8.1902995e-39 301 231
-0.022312919 0.70700002 0.011156459 8.4643612e-39 302 231
-0.021073313 0.70700002 0.011156459 8.0955801e-39 303 231
-0.019833706 0.70700002 0.011156459 6.9921066e-39 304 231
-0.018567799 0.70599997 0.011140679 5.8853989e-39 305 231
-0.017329946 0.70599997 0.011140679 3.4919083e-39 306 231
-0.016092092 0.70599997 0.011140679 1.8367099e-39 307 231
-0.014854239 0.70599997 0.011140679 1.9285552e-39 308 231
-0.013577812 0.704 0.011109119 2.7579558e-39 309 231
-0.012325933 0.70300001 0.01109334 3.3104331e-39 310 231
-0.01109334 0.70300001 0.01109334 3.8636069e-39 311 231
-0.0098607466 0.70300001 0.01109334 4.6018754e-39 312 231
-0.0086281532 0.70300001 0.01109334 5.6156686e-39 313 231
-0.0073955595 0.70300001 0.01109334 7.2744304e-39 314 231
-0.0061629666 0.70300001 0.01109334 8.2885837e-39 315 231
-0.0049163462 0.70099998 0.011061779 8.106691e-39 316 231
-0.0036819996 0.69999999 0.011045999 8.0144954e-39 317 231
-0.0024546667 0.69999999 0.011045999 8.3800535e-39 318 231
-0.0012238267 0.69800001 0.01101444 8.4722491e-39 319 231
0 0.69700003 0.01099866 9.6628988e-39 320 231
0.0012220733 0.69700003 0.01099866 9.6628988e-39 321 231
0.0024476533 0.69800001 0.01101444 9.2948449e-39 322 231
0.0036977797 0.70300001 0.01109334 8.9260624e-39 323 231
0.0049303733 0.70300001 0.01109334 8.6512706e-39 324 231
0.0061717331 0.704 0.011109119 8.559075e-39 325 231
0.0074060797 0.704 0.011109119 8.2806958e-39 326 231
0.0086404262 0.704 0.011109119 7.727522e-39 327 231
0.0099028256 0.70599997 0.011140679 6.8999264e-39 328 231
0.011140679 0.70599997 0.011140679 6.8077307e-39 329 231
0.012378532 0.70599997 0.011140679 6.2585072e-39 330 231
0.013616386 0.70599997 0.011140679 6.6269296e-39 331 231
0.014854239 0.70599997 0.011140679 6.9946401e-39 332 231
0.016092092 0.70599997 0.011140679 7.5478125e-39 333 231
0.017354494 0.70700002 0.011156459 8.3764788e-39 334 231
0.018594101 0.70700002 0.011156459 9.0218482e-39 335 231
0.01986176 0.708 0.01117224 9.5735604e-39 336 231
0.021103119 0.708 0.01117224 9.1125823e-39 337 231
0.022344479 0.708 0.01117224 8.7416529e-39 338 231
0.023652466 0.70999998 0.011203799 6.8055447e-39 339 231
0.024897331 0.70999998 0.011203799 4.5082308e-39 340 231
0.026179021 0.71100003 0.01121958 3.9550584e-39 341 231
0.027425639 0.71100003 0.01121958 2.5786092e-39 342 231
-0.040172372 0.71600002 0.010043093 7.3698868e-39 288 232
-0.038916986 0.71600002 0.010043093 6.079148e-39 289 232
-0.037556399 0.71399999 0.01001504 7.5478125e-39 290 232
-0.036304519 0.71399999 0.01001504 7.6400095e-39 291 232
-0.035003547 0.713 0.010001013 8.0999143e-39 292 232
-0.033658739 0.71100003 0.0099729598 8.0999143e-39 293 232
-0.032366529 0.70999998 0.0099589331 8.6502042e-39 294 232
-0.031121666 0.70999998 0.0099589331 8.6502042e-39 295 232
-0.029876797 0.70999998 0.0099589331 8.558003e-39 296 232
-0.028631933 0.70999998 0.0099589331 8.558003e-39 297 232
-0.027387066 0.70999998 0.0099589331 8.283214e-39 298 232
-0.026068559 0.708 0.0099308798 8.283214e-39 299 232
-0.024827199 0.708 0.0099308798 8.3736075e-39 300 232
-0.023552528 0.70700002 0.0099168532 8.3736075e-39 301 232
-0.022312919 0.70700002 0.0099168532 8.280693e-39 302 232
-0.021043506 0.70599997 0.0099028256 7.9115518e-39 303 232
-0.019805651 0.70599997 0.0099028256 5.33403e-39 304 232
-0.018567799 0.70599997 0.0099028256 3.4901174e-39 305 232
-0.017329946 0.70599997 0.0099028256 4.0407702e-39 306 232
-0.016092092 0.70599997 0.0099028256 5.6070197e-39 307 232
-0.014854239 0.70599997 0.0099028256 5.2486699e-39 308 232
-0.013577812 0.704 0.0098747732 5.8940393e-39 309 232
-0.012325933 0.70300001 0.0098607466 6.5387025e-39 310 232
-0.01109334 0.70300001 0.0098607466 7.4606602e-39 311 232
-0.0098607466 0.70300001 0.0098607466 7.5546495e-39 312 232
-0.0085913334 0.69999999 0.0098186666 7.5546495e-39 313 232
-0.0073429602 0.69800001 0.0097906133 7.36987e-39 314 232
-0.0061103669 0.69700003 0.0097765867 7.4620671e-39 315 232
-0.0048882933 0.69700003 0.0097765867 7.4634922e-39 316 232
-0.00366622 0.69700003 0.0097765867 7.5556878e-39 317 232
-0.0024441467 0.69700003 0.0097765867 8.7477626e-39 318 232
-0.0012238267 0.69800001 0.0097906133 9.0243509e-39 319 232
0 0.69700003 0.0097765867 9.2058737e-39 320 232
0.0012220733 0.69700003 0.0097765867 8.7445354e-39 321 232
0.0024441467 0.69700003 0.0097765867 8.9267785e-39 322 232
0.0036714801 0.69800001 0.0097906133 8.5583561e-39 323 232
0.0048953067 0.69800001 0.0097906133 8.2824923e-39 324 232
0.0061629666 0.70300001 0.0098607466 8.005904e-39 325 232
0.0073745195 0.70099998 0.0098326923 7.9112014e-39 326 232
0.0086036054 0.70099998 0.0098326923 7.450582e-39 327 232
0.0098747732 0.704 0.0098747732 6.8095286e-39 328 232
0.011109119 0.704 0.0098747732 6.8095286e-39 329 232
0.012343466 0.704 0.0098747732 6.6272855e-39 330 232
0.013616386 0.70599997 0.0099028256 6.4428943e-39 331 232
0.014854239 0.70599997 0.0099028256 7.1750713e-39 332 232
0.016092092 0.70599997 0.0099028256 6.8981243e-39 333 232
0.017329946 0.70599997 0.0099028256 6.8123971e-39 334 232
0.018567799 0.70599997 0.0099028256 7.7347121e-39 335 232
0.019833706 0.70700002 0.0099168532 9.2044262e-39 336 232
0.021073313 0.70700002 0.0099168532 8.9278379e-39 337 232
0.022312919 0.70700002 0.0099168532 8.0073207e-39 338 232
0.023585839 0.708 0.0099308798 6.2559639e-39 339 232
0.024827199 0.708 0.0099308798 4.7833701e-39 340 232
0.026142199 0.70999998 0.0099589331 4.5989789e-39 341 232
0.027425639 0.71100003 0.0099729598 3.0352629e-39 342 232
0.028672259 0.71100003 0.0099729598 3.0352629e-39 343 232
-0.041427758 0.71600002 0.0087877065 6.5447939e-39 287 233
-0.040172372 0.71600002 0.0087877065 6.7223707e-39 288 233
-0.038808275 0.71399999 0.0087631596 6.4457852e-39 289 233
-0.037556399 0.71399999 0.0087631596 7.4563442e-39 290 233
-0.036304519 0.71399999 0.0087631596 7.5485398e-39 291 233
-0.035003547 0.713 0.0087508867 8.3754124e-39 292 233
-0.033611398 0.70999998 0.0087140659 8.282858e-39 293 233
-0.032366529 0.70999998 0.0087140659 8.7413208e-39 294 233
-0.031121666 0.70999998 0.0087140659 8.7413208e-39 295 233
-0.029876797 0.70999998 0.0087140659 8.4665262e-39 296 233
-0.02855128 0.708 0.008689519 8.5587218e-39 297 233
-0.027309919 0.708 0.008689519 8.3757599e-39 298 233
-0.026068559 0.708 0.008689519 8.2835643e-39 299 233
-0.024792133 0.70700002 0.008677247 8.7420215e-39 300 233
-0.023552528 0.70700002 0.008677247 8.4657933e-39 301 233
-0.022281358 0.70599997 0.0086649731 8.0955829e-39 302 233
-0.021043506 0.70599997 0.0086649731 7.4502135e-39 303 233
-0.019805651 0.70599997 0.0086649731 4.0465268e-39 304 233
-0.018567799 0.70599997 0.0086649731 3.0323762e-39 305 233
-0.017280852 0.704 0.0086404262 4.785175e-39 306 233
-0.016046507 0.704 0.0086404262 5.7989668e-39 307 233
-0.014812159 0.704 0.0086404262 7.0014631e-39 308 233
-0.013558527 0.70300001 0.0086281532 7.1854942e-39 309 233
-0.012273333 0.69999999 0.0085913334 7.2769681e-39 310 233
-0.01101444 0.69800001 0.0085667865 7.9223376e-39 311 233
-0.0097906133 0.69800001 0.0085667865 7.9241396e-39 312 233
-0.0085545136 0.69700003 0.0085545136 7.4628013e-39 313 233
-0.0073219193 0.69599998 0.0085422397 7.095095e-39 314 233
-0.0061015999 0.69599998 0.0085422397 7.002898e-39 315 233
-0.0048812795 0.69599998 0.0085422397 7.4620727e-39 316 233
-0.0036504399 0.69400001 0.0085176928 7.6461038e-39 317 233
-0.0024336267 0.69400001 0.0085176928 8.0127255e-39 318 233
-0.0012203199 0.69599998 0.0085422397 8.3811479e-39 319 233
0 0.69700003 0.0085545136 7.735431e-39 320 233
0.0012220733 0.69700003 0.0085545136 7.2744542e-39 321 233
0.0024441467 0.69700003 0.0085545136 7.9151517e-39 322 233
0.00366622 0.69700003 0.0085545136 7.8229547e-39 323 233
0.0048953067 0.69800001 0.0085667865 8.004832e-39 324 233
0.006119133 0.69800001 0.0085667865 7.7282451e-39 325 233
0.0073639993 0.69999999 0.0085913334 7.1772321e-39 326 233
0.0085913334 0.69999999 0.0085913334 6.9928409e-39 327 233
0.0098326923 0.70099998 0.0086036054 6.993194e-39 328 233
0.011061779 0.70099998 0.0086036054 6.993194e-39 329 233
0.012325933 0.70300001 0.0086281532 6.5340179e-39 330 233
0.013558527 0.70300001 0.0086281532 6.2570709e-39 331 233
0.014812159 0.704 0.0086404262 6.0716132e-39 332 233
0.016046507 0.704 0.0086404262 5.9790589e-39 333 233
0.017280852 0.704 0.0086404262 5.7982507e-39 334 233
0.018515198 0.704 0.0086404262 6.9967939e-39 335 233
0.019749546 0.704 0.0086404262 8.1034694e-39 336 233
0.021043506 0.70599997 0.0086649731 8.0112738e-39 337 233
0.022281358 0.70599997 0.0086649731 8.652309e-39 338 233
0.023552528 0.70700002 0.008677247 7.6381556e-39 339 233
0.024792133 0.70700002 0.008677247 6.5296599e-39 340 233
0.026068559 0.708 0.008689519 6.0686817e-39 341 233
0.027387066 0.70999998 0.0087140659 4.4131653e-39 342 233
0.028672259 0.71100003 0.0087263398 3.8599915e-39 343 233
0.029918881 0.71100003 0.0087263398 3.9630052e-39 344 233
0.031165501 0.71100003 0.0087263398 7.6508304e-39 345 233
-0.042683143 0.71600002 0.00753232 6.8210319e-39 286 234
-0.041427758 0.71600002 0.00753232 4.792728e-39 287 234
-0.040060159 0.71399999 0.0075112795 7.453826e-39 288 234
-0.038808275 0.71399999 0.0075112795 7.6378572e-39 289 234
-0.037556399 0.71399999 0.0075112795 7.5478097e-39 290 234
-0.036304519 0.71399999 0.0075112795 7.8247567e-39 291 234
-0.035003547 0.713 0.0075007593 8.5590778e-39 292 234
-0.033611398 0.70999998 0.0074691991 8.5590778e-39 293 234
-0.032366529 0.70999998 0.0074691991 8.5590778e-39 294 234
-0.031121666 0.70999998 0.0074691991 8.4665234e-39 295 234
-0.02979264 0.708 0.0074481601 8.3757627e-39 296 234
-0.02855128 0.708 0.0074481601 8.6519895e-39 297 234
-0.027309919 0.708 0.0074481601 8.7441851e-39 298 234
-0.02603174 0.70700002 0.0074376399 8.7441851e-39 299 234
-0.024757065 0.70599997 0.0074271196 8.8345829e-39 300 234
-0.023519212 0.70599997 0.0074271196 8.8345829e-39 301 234
-0.022218239 0.704 0.0074060797 7.6382075e-39 302 234
-0.020983893 0.704 0.0074060797 5.7020993e-39 303 234
-0.019749546 0.704 0.0074060797 3.9547053e-39 304 234
-0.018515198 0.704 0.0074060797 4.7848247e-39 305 234
-0.017280852 0.704 0.0074060797 6.8167159e-39 306 234
-0.016023712 0.70300001 0.0073955595 7.1851383e-39 307 234
-0.014791119 0.70300001 0.0073955595 7.09653e-39 308 234
-0.013519952 0.70099998 0.0073745195 6.8195829e-39 309 234
-0.012168133 0.69400001 0.0073008798 6.9092646e-39 310 234
-0.01095132 0.69400001 0.0073008798 6.7248734e-39 311 234
-0.0097204801 0.69300002 0.0072903596 5.9880342e-39 312 234
-0.0085054198 0.69300002 0.0072903596 6.1720653e-39 313 234
-0.0073008798 0.69400001 0.0073008798 6.9996652e-39 314 234
-0.0060753003 0.69300002 0.0072903596 7.1840565e-39 315 234
-0.00486024 0.69300002 0.0072903596 8.0120165e-39 316 234
-0.0036451798 0.69300002 0.0072903596 8.4729932e-39 317 234
-0.00243012 0.69300002 0.0072903596 8.0134542e-39 318 234
-0.00121506 0.69300002 0.0072903596 7.091858e-39 319 234
0 0.69400001 0.0073008798 4.1434083e-39 320 234
0.0012168133 0.69400001 0.0073008798 4.235604e-39 321 234
0.0024336267 0.69400001 0.0073008798 6.258873e-39 322 234
0.0036504399 0.69400001 0.0073008798 6.7198511e-39 323 234
0.0048812795 0.69599998 0.0073219193 7.4527302e-39 324 234
0.0061015999 0.69599998 0.0073219193 7.268339e-39 325 234
0.0073429602 0.69800001 0.0073429602 6.8091629e-39 326 234
0.0085667865 0.69800001 0.0073429602 6.8091629e-39 327 234
0.0098186666 0.69999999 0.0073639993 6.9921192e-39 328 234
0.011045999 0.69999999 0.0073639993 6.8077279e-39 329 234
0.012273333 0.69999999 0.0073639993 6.7148148e-39 330 234
0.013519952 0.70099998 0.0073745195 6.4378692e-39 331 234
0.014791119 0.70300001 0.0073955595 5.8857801e-39 332 234
0.015978126 0.70099998 0.0073745195 5.7010301e-39 333 234
0.017207211 0.70099998 0.0073745195 5.151452e-39 334 234
0.018488899 0.70300001 0.0073955595 6.8109748e-39 335 234
0.019749546 0.704 0.0074060797 8.5630252e-39 336 234
0.020983893 0.704 0.0074060797 9.0240034e-39 337 234
0.022218239 0.704 0.0074060797 9.1154535e-39 338 234
0.023519212 0.70599997 0.0074271196 8.9307035e-39 339 234
0.024757065 0.70599997 0.0074271196 8.4643402e-39 340 234
0.026068559 0.708 0.0074481601 7.4501869e-39 341 234
0.027309919 0.708 0.0074481601 5.0596039e-39 342 234
0.028631933 0.70999998 0.0074691991 4.7833757e-39 343 234
0.029876797 0.70999998 0.0074691991 3.7746454e-39 344 234
0.031121666 0.70999998 0.0074691991 5.3423299e-39 345 234
-0.043938532 0.71600002 0.0062769335 6.9128548e-39 285 235
-0.042563915 0.71399999 0.0062593995 6.5387053e-39 286 235
-0.041312039 0.71399999 0.0062593995 6.1699241e-39 287 235
-0.040004052 0.713 0.0062506334 6.9046137e-39 288 235
-0.038753927 0.713 0.0062506334 6.9046137e-39 289 235
-0.037503798 0.713 0.0062506334 7.9151545e-39 290 235
-0.036151983 0.71100003 0.0062330998 8.0995458e-39 291 235
-0.034905359 0.71100003 0.0062330998 8.8345857e-39 292 235
-0.033516716 0.708 0.0062067998 8.6505545e-39 293 235
-0.03227536 0.708 0.0062067998 8.8345829e-39 294 235
-0.031034 0.708 0.0062067998 8.9267785e-39 295 235
-0.02979264 0.708 0.0062067998 8.9282148e-39 296 235
-0.028510952 0.70700002 0.0061980332 9.3891916e-39 297 235
-0.027271347 0.70700002 0.0061980332 9.3891888e-39 298 235
-0.025994917 0.70599997 0.0061892662 8.928212e-39 299 235
-0.024757065 0.70599997 0.0061892662 8.6516237e-39 300 235
-0.023452586 0.704 0.0061717331 8.5594281e-39 301 235
-0.022218239 0.704 0.0061717331 6.4421754e-39 302 235
-0.020983893 0.704 0.0061717331 4.4135128e-39 303 235
-0.019749546 0.704 0.0061717331 4.4185533e-39 304 235
-0.018515198 0.704 0.0061717331 5.6170965e-39 305 235
-0.017256306 0.70300001 0.0061629666 6.8149138e-39 306 235
-0.016023712 0.70300001 0.0061629666 7.8294259e-39 307 235
-0.014643839 0.69599998 0.0061015999 6.9117828e-39 308 235
-0.01336566 0.69300002 0.0060753003 6.6351945e-39 309 235
-0.012150601 0.69300002 0.0060753003 6.9071164e-39 310 235
-0.010935539 0.69300002 0.0060753003 6.4461383e-39 311 235
-0.0096924258 0.69099998 0.0060577663 5.8940519e-39 312 235
-0.008480873 0.69099998 0.0060577663 6.0784446e-39 313 235
-0.0072903596 0.69300002 0.0060753003 5.8036556e-39 314 235
-0.0060753003 0.69300002 0.0060753003 5.7114599e-39 315 235
-0.00486024 0.69300002 0.0060753003 6.1727968e-39 316 235
-0.0036346598 0.69099998 0.0060577663 7.4631769e-39 317 235
-0.0024231065 0.69099998 0.0060577663 7.8283469e-39 318 235
-0.00121506 0.69300002 0.0060753003 7.1829775e-39 319 235
0 0.69300002 0.0060753003 5.0610514e-39 320 235
0.00121506 0.69300002 0.0060753003 4.3234864e-39 321 235
0.00243012 0.69300002 0.0060753003 4.6018936e-39 322 235
0.0036451798 0.69300002 0.0060753003 4.6940906e-39 323 235
0.0048672534 0.69400001 0.0060840664 5.6128001e-39 324 235
0.0060840664 0.69400001 0.0060840664 5.9815812e-39 325 235
0.0073008798 0.69400001 0.0060840664 6.0744817e-39 326 235
0.0085422397 0.69599998 0.0061015999 6.1666773e-39 327 235
0.0097765867 0.69700003 0.0061103669 6.9002795e-39 328 235
0.01101444 0.69800001 0.006119133 6.8080839e-39 329 235
0.012238266 0.69800001 0.006119133 6.4393014e-39 330 235
0.013462093 0.69800001 0.006119133 6.0701587e-39 331 235
0.014749039 0.70099998 0.0061454331 5.4262382e-39 332 235
0.015978126 0.70099998 0.0061454331 5.241847e-39 333 235
0.017207211 0.70099998 0.0061454331 4.8752351e-39 334 235
0.018436298 0.70099998 0.0061454331 5.6128001e-39 335 235
0.019721493 0.70300001 0.0061629666 7.7307618e-39 336 235
0.020954086 0.70300001 0.0061629666 8.4683269e-39 337 235
0.02218668 0.70300001 0.0061629666 8.5597784e-39 338 235
0.023452586 0.704 0.0061717331 7.914409e-39 339 235
0.024686933 0.704 0.0061717331 7.085377e-39 340 235
0.025994917 0.70599997 0.0061892662 6.070865e-39 341 235
0.027309919 0.708 0.0062067998 5.1507275e-39 342 235
0.02855128 0.708 0.0062067998 4.8741393e-39 343 235
0.029876797 0.70999998 0.0062243328 3.4969725e-39 344 235
0.031121666 0.70999998 0.0062243328 3.4969725e-39 345 235
0.032412119 0.71100003 0.0062330998 4.3368072e-39 346 235
0.033658739 0.71100003 0.0062330998 6.5495023e-39 347 235
-0.043754432 0.713 0.0050005065 5.7118074e-39 285 236
-0.042504307 0.713 0.0050005065 6.6262262e-39 286 236
-0.041254178 0.713 0.0050005065 6.9031732e-39 287 236
-0.040004052 0.713 0.0050005065 7.0875602e-39 288 236
-0.038645219 0.71100003 0.0049864799 7.2719515e-39 289 236
-0.037398599 0.71100003 0.0049864799 8.2821392e-39 290 236
-0.036101133 0.70999998 0.0049794666 8.5587246e-39 291 236
-0.034856264 0.70999998 0.0049794666 8.7434718e-39 292 236
-0.033469379 0.70700002 0.0049584266 8.6509175e-39 293 236
-0.032229774 0.70700002 0.0049584266 8.9278645e-39 294 236
-0.030990168 0.70700002 0.0049584266 9.3884825e-39 295 236
-0.029708479 0.70599997 0.0049514128 9.9434612e-39 296 236
-0.028470624 0.70599997 0.0049514128 1.0496275e-38 297 236
-0.027232772 0.70599997 0.0049514128 9.9434556e-39 298 236
-0.025994917 0.70599997 0.0049514128 9.0214979e-39 299 236
-0.024686933 0.704 0.0049373866 8.5583533e-39 300 236
-0.023452586 0.704 0.0049373866 8.281765e-39 301 236
-0.022218239 0.704 0.0049373866 4.9713557e-39 302 236
-0.020954086 0.70300001 0.0049303733 4.1415937e-39 303 236
-0.019721493 0.70300001 0.0049303733 5.7096424e-39 304 236
-0.018515198 0.704 0.0049373866 7.0925769e-39 305 236
-0.017182667 0.69999999 0.0049093333 6.9063906e-39 306 236
-0.015955333 0.69999999 0.0049093333 7.3673687e-39 307 236
-0.014580719 0.69300002 0.00486024 7.0940216e-39 308 236
-0.01336566 0.69300002 0.00486024 6.8174347e-39 309 236
-0.012115533 0.69099998 0.0048462129 6.263189e-39 310 236
-0.01090398 0.69099998 0.0048462129 5.894405e-39 311 236
-0.0096924258 0.69099998 0.0048462129 5.1597183e-39 312 236
-0.008480873 0.69099998 0.0048462129 5.435945e-39 313 236
-0.0072693196 0.69099998 0.0048462129 5.5256267e-39 314 236
-0.0060577663 0.69099998 0.0048462129 5.0646486e-39 315 236
-0.0048462129 0.69099998 0.0048462129 4.5172327e-39 316 236
-0.0036346598 0.69099998 0.0048462129 5.3469934e-39 317 236
-0.0024231065 0.69099998 0.0048462129 6.6323176e-39 318 236
-0.0012115532 0.69099998 0.0048462129 6.1716996e-39 319 236
0 0.69099998 0.0048462129 5.0635542e-39 320 236
0.0012115532 0.69099998 0.0048462129 3.6806197e-39 321 236
0.00243012 0.69300002 0.00486024 3.589887e-39 322 236
0.0036451798 0.69300002 0.00486024 3.6820827e-39 323 236
0.00486024 0.69300002 0.00486024 4.5100455e-39 324 236
0.0060753003 0.69300002 0.00486024 4.9710236e-39 325 236
0.0073008798 0.69400001 0.0048672534 5.4316318e-39 326 236
0.0085422397 0.69599998 0.0048812795 5.5238275e-39 327 236
0.0097625591 0.69599998 0.0048812795 6.5322158e-39 328 236
0.010982879 0.69599998 0.0048812795 6.5322158e-39 329 236
0.0122032 0.69599998 0.0048812795 6.3474589e-39 330 236
0.013423519 0.69599998 0.0048812795 6.0705118e-39 331 236
0.014727999 0.69999999 0.0049093333 5.3347489e-39 332 236
0.015955333 0.69999999 0.0049093333 5.058162e-39 333 236
0.017182667 0.69999999 0.0049093333 4.9659818e-39 334 236
0.018436298 0.70099998 0.0049163462 5.2429288e-39 335 236
0.019665385 0.70099998 0.0049163462 5.7961124e-39 336 236
0.020954086 0.70300001 0.0049303733 6.165255e-39 337 236
0.02218668 0.70300001 0.0049303733 6.8063042e-39 338 236
0.023419274 0.70300001 0.0049303733 6.7141086e-39 339 236
0.024651866 0.70300001 0.0049303733 5.7961026e-39 340 236
0.02592128 0.704 0.0049373866 5.1507331e-39 341 236
0.027232772 0.70599997 0.0049514128 4.8741421e-39 342 236
0.028510952 0.70700002 0.0049584266 4.5053609e-39 343 236
0.02979264 0.708 0.0049654399 3.8632313e-39 344 236
0.031034 0.708 0.0049654399 3.6791988e-39 345 236
0.032366529 0.70999998 0.0049794666 2.7684052e-39 346 236
0.033658739 0.71100003 0.0049864799 4.9811018e-39 347 236
0.034905359 0.71100003 0.0049864799 7.65261e-39 348 236
-0.045067675 0.71399999 0.0037556398 5.6203377e-39 284 237
-0.043754432 0.713 0.0037503797 4.9749683e-39 285 237
-0.042504307 0.713 0.0037503797 6.1681221e-39 286 237
-0.041254178 0.713 0.0037503797 6.444709e-39 287 237
-0.039891839 0.71100003 0.0037398601 7.2723046e-39 288 237
-0.038590867 0.70999998 0.0037345996 7.4566973e-39 289 237
-0.037345998 0.70999998 0.0037345996 7.9169496e-39 290 237
-0.03599944 0.708 0.00372408 8.1935351e-39 291 237
-0.034758076 0.708 0.00372408 8.6530727e-39 292 237
-0.033422034 0.70599997 0.0037135598 8.5608756e-39 293 237
-0.032184184 0.70599997 0.0037135598 8.6530727e-39 294 237
-0.030946331 0.70599997 0.0037135598 9.6668645e-39 295 237
-0.029708479 0.70599997 0.0037135598 1.0774294e-38 296 237
-0.028389972 0.704 0.0037030398 1.0774294e-38 297 237
-0.027155625 0.704 0.0037030398 1.0038524e-38 298 237
-0.02592128 0.704 0.0037030398 1.0499502e-38 299 237
-0.024686933 0.704 0.0037030398 1.0951119e-38 300 237
-0.023419274 0.70300001 0.0036977797 8.7387845e-39 301 237
-0.02218668 0.70300001 0.0036977797 4.2409794e-39 302 237
-0.020954086 0.70300001 0.0036977797 4.9785444e-39 303 237
-0.019721493 0.70300001 0.0036977797 7.3695197e-39 304 237
-0.018409999 0.69999999 0.0036819996 7.4617167e-39 305 237
-0.017133573 0.69800001 0.0036714801 6.9074654e-39 306 237
-0.015864158 0.69599998 0.0036609597 6.8152697e-39 307 237
-0.014580719 0.69300002 0.0036451798 6.541208e-39 308 237
-0.01336566 0.69300002 0.0036451798 6.1720653e-39 309 237
-0.012115533 0.69099998 0.0036346598 5.5256267e-39 310 237
-0.01090398 0.69099998 0.0036346598 5.3408767e-39 311 237
-0.0096924258 0.69099998 0.0036346598 4.6991073e-39 312 237
-0.008480873 0.69099998 0.0036346598 4.8834971e-39 313 237
-0.0072693196 0.69099998 0.0036346598 5.2486853e-39 314 237
-0.0060489997 0.69 0.0036293997 5.2486853e-39 315 237
-0.0048391996 0.69 0.0036293997 4.7927434e-39 316 237
-0.0036293997 0.69 0.0036293997 5.0696905e-39 317 237
-0.0024195998 0.69 0.0036293997 5.6210439e-39 318 237
-0.0012115532 0.69099998 0.0036346598 5.1600658e-39 319 237
0 0.69 0.0036293997 4.6954905e-39 320 237
0.0012097999 0.69 0.0036293997 3.6813386e-39 321 237
0.0024231065 0.69099998 0.0036346598 2.4889317e-39 322 237
0.0036346598 0.69099998 0.0036346598 2.7655186e-39 323 237
0.0048462129 0.69099998 0.0036346598 3.5020046e-39 324 237
0.0060577663 0.69099998 0.0036346598 3.7789516e-39 325 237
0.0072903596 0.69300002 0.0036451798 4.8802545e-39 326 237
0.0085054198 0.69300002 0.0036451798 4.9724501e-39 327 237
0.0097345067 0.69400001 0.0036504399 6.3478246e-39 328 237
0.01095132 0.69400001 0.0036504399 6.4400202e-39 329 237
0.012168133 0.69400001 0.0036504399 6.5307711e-39 330 237
0.013423519 0.69599998 0.0036609597 6.1619886e-39 331 237
0.01466488 0.69700003 0.00366622 5.3343929e-39 332 237
0.015909746 0.69800001 0.0036714801 4.9659691e-39 333 237
0.017133573 0.69800001 0.0036714801 4.4156792e-39 334 237
0.018409999 0.69999999 0.0036819996 4.6004306e-39 335 237
0.019637333 0.69999999 0.0036819996 5.3336895e-39 336 237
0.020894472 0.70099998 0.0036872597 5.5184395e-39 337 237
0.022123558 0.70099998 0.0036872597 5.886143e-39 338 237
0.023352645 0.70099998 0.0036872597 5.97834e-39 339 237
0.024581732 0.70099998 0.0036872597 5.428392e-39 340 237
0.025884461 0.70300001 0.0036977797 5.0592508e-39 341 237
0.027117053 0.70300001 0.0036977797 4.3227647e-39 342 237
0.028389972 0.704 0.0037030398 4.1383735e-39 343 237
0.029708479 0.70599997 0.0037135598 3.3125743e-39 344 237
0.030946331 0.70599997 0.0037135598 3.3125743e-39 345 237
0.032366529 0.70999998 0.0037345996 3.2232723e-39 346 237
0.033611398 0.70999998 0.0037345996 4.2374243e-39 347 237
0.034856264 0.70999998 0.0037345996 4.9818234e-39 348 237
0.036151983 0.71100003 0.0037398601 7.1023229e-39 349 237
-0.046319555 0.71399999 0.0025037599 5.6231977e-39 283 238
-0.045067675 0.71399999 0.0025037599 4.5132699e-39 284 238
-0.043754432 0.713 0.0025002533 4.8820524e-39 285 238
-0.042504307 0.713 0.0025002533 5.8929645e-39 286 238
-0.041138459 0.71100003 0.0024932399 6.722365e-39 287 238
-0.039835732 0.70999998 0.0024897333 7.4577665e-39 288 238
-0.038482159 0.708 0.00248272 7.7347121e-39 289 238
-0.0372408 0.708 0.00248272 8.3775606e-39 290 238
-0.035948593 0.70700002 0.0024792133 8.5615931e-39 291 238
-0.034659892 0.70599997 0.0024757064 8.9296526e-39 292 238
-0.033422034 0.70599997 0.0024757064 8.9296526e-39 293 238
-0.032093015 0.704 0.0024686933 9.2987952e-39 294 238
-0.030858666 0.704 0.0024686933 1.003636e-38 295 238
-0.029624319 0.704 0.0024686933 1.068173e-38 296 238
-0.028349647 0.70300001 0.0024651866 1.0957956e-38 297 238
-0.027117053 0.70300001 0.0024651866 1.0774647e-38 298 238
-0.025884461 0.70300001 0.0024651866 1.1880636e-38 299 238
-0.024651866 0.70300001 0.0024651866 1.1878118e-38 300 238
-0.023352645 0.70099998 0.0024581731 6.6229667e-39 301 238
-0.022091998 0.69999999 0.0024546667 3.5952568e-39 302 238
-0.020805053 0.69800001 0.0024476533 6.0845388e-39 303 238
-0.019581227 0.69800001 0.0024476533 7.4635076e-39 304 238
-0.0183574 0.69800001 0.0024476533 6.8181382e-39 305 238
-0.017084479 0.69599998 0.0024406398 6.5390374e-39 306 238
-0.015818574 0.69400001 0.0024336267 6.4468417e-39 307 238
-0.014580719 0.69300002 0.00243012 5.5281421e-39 308 238
-0.01336566 0.69300002 0.00243012 5.0675226e-39 309 238
-0.012115533 0.69099998 0.0024231065 4.7895092e-39 310 238
-0.01090398 0.69099998 0.0024231065 4.6969549e-39 311 238
-0.0096924258 0.69099998 0.0024231065 4.6969549e-39 312 238
-0.008480873 0.69099998 0.0024231065 4.7895092e-39 313 238
-0.0072693196 0.69099998 0.0024231065 4.9728215e-39 314 238
-0.0060489997 0.69 0.0024195998 4.8806259e-39 315 238
-0.0048391996 0.69 0.0024195998 3.9662268e-39 316 238
-0.0036293997 0.69 0.0024195998 3.9662268e-39 317 238
-0.0024195998 0.69 0.0024195998 4.6101346e-39 318 238
-0.0012115532 0.69099998 0.0024231065 4.517939e-39 319 238
0 0.69 0.0024195998 4.7876665e-39 320 238
0.0012097999 0.69 0.0024195998 3.8660704e-39 321 238
0.0024195998 0.69 0.0024195998 4.1415909e-39 322 238
0.0036293997 0.69 0.0024195998 4.5107335e-39 323 238
0.0048462129 0.69099998 0.0024231065 4.4203512e-39 324 238
0.0060577663 0.69099998 0.0024231065 4.6047438e-39 325 238
0.0072693196 0.69099998 0.0024231065 5.1539645e-39 326 238
0.0085054198 0.69300002 0.00243012 5.2465189e-39 327 238
0.0097345067 0.69400001 0.0024336267 5.8882954e-39 328 238
0.01095132 0.69400001 0.0024336267 5.980491e-39 329 238
0.012168133 0.69400001 0.0024336267 6.3471057e-39 330 238
0.013384946 0.69400001 0.0024336267 6.0701587e-39 331 238
0.01460176 0.69400001 0.0024336267 5.7928501e-39 332 238
0.015864158 0.69599998 0.0024406398 5.516622e-39 333 238
0.017109027 0.69700003 0.0024441467 4.5986314e-39 334 238
0.018331099 0.69700003 0.0024441467 4.5986314e-39 335 238
0.019581227 0.69800001 0.0024476533 4.6904767e-39 336 238
0.020805053 0.69800001 0.0024476533 4.7826723e-39 337 238
0.022091998 0.69999999 0.0024546667 4.8759413e-39 338 238
0.023319334 0.69999999 0.0024546667 5.1525282e-39 339 238
0.024546666 0.69999999 0.0024546667 5.2432791e-39 340 238
0.025773998 0.69999999 0.0024546667 5.0588878e-39 341 238
0.027039904 0.70099998 0.0024581731 4.3231207e-39 342 238
0.028349647 0.70300001 0.0024651866 4.0461736e-39 343 238
0.029624319 0.704 0.0024686933 3.0370664e-39 344 238
0.030858666 0.704 0.0024686933 3.0370664e-39 345 238
0.032184184 0.70599997 0.0024757064 3.0385153e-39 346 238
0.033611398 0.70999998 0.0024897333 3.0385153e-39 347 238
0.034856264 0.70999998 0.0024897333 2.5865391e-39 348 238
0.036151983 0.71100003 0.0024932399 5.0758197e-39 349 238
0.037398599 0.71100003 0.0024932399 8.114307e-39 350 238
-0.047571439 0.71399999 0.00125188 4.8877977e-39 282 239
-0.046319555 0.71399999 0.00125188 4.0576769e-39 283 239
-0.045004558 0.713 0.0012501266 5.0650017e-39 284 239
-0.043631699 0.71100003 0.00124662 5.4334255e-39 285 239
-0.042385083 0.71100003 0.00124662 6.6290848e-39 286 239
-0.041080594 0.70999998 0.0012448666 7.550681e-39 287 239
-0.039723519 0.708 0.00124136 8.0123724e-39 288 239
-0.038482159 0.708 0.00124136 7.9201768e-39 289 239
-0.037188202 0.70700002 0.0012396066 8.6537887e-39 290 239
-0.035948593 0.70700002 0.0012396066 8.8385387e-39 291 239
-0.034659892 0.70599997 0.0012378532 8.9310973e-39 292 239
-0.03332736 0.704 0.0012343467 1.012964e-38 293 239
-0.032093015 0.704 0.0012343467 1.0775363e-38 294 239
-0.030814834 0.70300001 0.0012325933 1.0406582e-38 295 239
-0.029582238 0.70300001 0.0012325933 1.0591329e-38 296 239
-0.028268991 0.70099998 0.0012290865 1.0960112e-38 297 239
-0.027039904 0.70099998 0.0012290865 1.0684614e-38 298 239
-0.025810819 0.70099998 0.0012290865 1.1237786e-38 299 239
-0.024581732 0.70099998 0.0012290865 9.1198088e-39 300 239
-0.023319334 0.69999999 0.0012273333 2.573919e-39 301 239
-0.022091998 0.69999999 0.0012273333 4.4189064e-39 302 239
-0.020805053 0.69800001 0.0012238267 7.1847753e-39 303 239
-0.019581227 0.69800001 0.0012238267 6.8195703e-39 304 239
-0.0183574 0.69800001 0.0012238267 6.358232e-39 305 239
-0.017084479 0.69599998 0.0012203199 6.172403e-39 306 239
-0.015818574 0.69400001 0.0012168133 5.3422822e-39 307 239
-0.014580719 0.69300002 0.00121506 5.3408627e-39 308 239
-0.01336566 0.69300002 0.00121506 5.1564715e-39 309 239
-0.012115533 0.69099998 0.0012115532 4.512551e-39 310 239
-0.01090398 0.69099998 0.0012115532 4.512551e-39 311 239
-0.0096924258 0.69099998 0.0012115532 4.3306737e-39 312 239
-0.008480873 0.69099998 0.0012115532 4.4228693e-39 313 239
-0.0072587994 0.69 0.0012097999 4.4210742e-39 314 239
-0.0060489997 0.69 0.0012097999 3.9600961e-39 315 239
-0.0048391996 0.69 0.0012097999 3.9593898e-39 316 239
-0.0036293997 0.69 0.0012097999 4.6047592e-39 317 239
-0.0024125867 0.68800002 0.0012062934 4.9771193e-39 318 239
-0.0012062934 0.68800002 0.0012062934 5.1615091e-39 319 239
0 0.68800002 0.0012062934 4.7909161e-39 320 239
0.0012062934 0.68800002 0.0012062934 4.4217735e-39 321 239
0.0024125867 0.68800002 0.0012062934 4.4214246e-39 322 239
0.0036293997 0.69 0.0012097999 4.6058158e-39 323 239
0.0048391996 0.69 0.0012097999 4.7902099e-39 324 239
0.0060577663 0.69099998 0.0012115532 4.6980143e-39 325 239
0.0072693196 0.69099998 0.0012115532 5.7035342e-39 326 239
0.008480873 0.69099998 0.0012115532 5.7035342e-39 327 239
0.0097204801 0.69300002 0.00121506 5.8868492e-39 328 239
0.010935539 0.69300002 0.00121506 6.0712419e-39 329 239
0.012150601 0.69300002 0.00121506 6.529346e-39 330 239
0.01336566 0.69300002 0.00121506 6.2527577e-39 331 239
0.014580719 0.69300002 0.00121506 5.5180709e-39 332 239
0.015818574 0.69400001 0.0012168133 4.964537e-39 333 239
0.017035386 0.69400001 0.0012168133 4.5979125e-39 334 239
0.018304799 0.69599998 0.0012203199 4.5053581e-39 335 239
0.019553173 0.69700003 0.0012220733 4.5053581e-39 336 239
0.020775247 0.69700003 0.0012220733 4.5979125e-39 337 239
0.02199732 0.69700003 0.0012220733 4.8741364e-39 338 239
0.023252707 0.69800001 0.0012238267 5.0588878e-39 339 239
0.024476532 0.69800001 0.0012238267 5.0581676e-39 340 239
0.025773998 0.69999999 0.0012273333 4.781222e-39 341 239
0.027001332 0.69999999 0.0012273333 3.9547053e-39 342 239
0.028268991 0.70099998 0.0012290865 3.7703126e-39 343 239
0.029582238 0.70300001 0.0012325933 2.8523164e-39 344 239
0.030814834 0.70300001 0.0012325933 2.8523164e-39 345 239
0.032093015 0.704 0.0012343467 2.853401e-39 346 239
0.033469379 0.70700002 0.0012396066 2.853401e-39 347 239
0.034708988 0.70700002 0.0012396066 3.7600761e-40 348 239
0.035948593 0.70700002 0.0012396066 1.8511377e-39 349 239
0.037188202 0.70700002 0.0012396066 4.7077575e-39 350 239
-0.049864799 0.71100003 -0 8.2975899e-39 280 240
-0.048618179 0.71100003 -0 6.7299054e-39 281 240
-0.047504812 0.713 -0 4.0548098e-39 282 240
-0.046254687 0.713 -0 3.9626142e-39 283 240
-0.044878319 0.71100003 -0 5.3408767e-39 284 240
-0.043631699 0.71100003 -0 5.710018e-39 285 240
-0.042325463 0.70999998 -0 6.3546615e-39 286 240
-0.041080594 0.70999998 -0 7.0922266e-39 287 240
-0.039723519 0.708 -0 8.0098669e-39 288 240
-0.038427804 0.70700002 -0 8.1020639e-39 289 240
-0.037135597 0.70599997 -0 8.1942623e-39 290 240
-0.035897743 0.70599997 -0 8.5630434e-39 291 240
-0.034561705 0.704 -0 9.3006057e-39 292 240
-0.033280019 0.70300001 -0 1.0499149e-38 293 240
-0.032047424 0.70300001 -0 1.0776441e-38 294 240
-0.030814834 0.70300001 -0 1.0776441e-38 295 240
-0.029498078 0.70099998 -0 1.114485e-38 296 240
-0.028268991 0.70099998 -0 1.1237405e-38 297 240
-0.027001332 0.69999999 -0 1.1512206e-38 298 240
-0.025773998 0.69999999 -0 1.1143424e-38 299 240
-0.024546666 0.69999999 -0 7.278773e-39 300 240
-0.023252707 0.69800001 -0 1.8388707e-39 301 240
-0.02202888 0.69800001 -0 4.7866099e-39 302 240
-0.020775247 0.69700003 -0 7.3680876e-39 303 240
-0.019553173 0.69700003 -0 7.185113e-39 304 240
-0.018331099 0.69700003 -0 6.8159704e-39 305 240
-0.017084479 0.69599998 -0 5.5245127e-39 306 240
-0.015818574 0.69400001 -0 5.4323171e-39 307 240
-0.014580719 0.69300002 -0 3.780374e-39 308 240
-0.01336566 0.69300002 -0 3.6878196e-39 309 240
-0.012115533 0.69099998 -0 3.8704172e-39 310 240
-0.01090398 0.69099998 -0 3.9626142e-39 311 240
-0.0096783992 0.69 -0 4.0551658e-39 312 240
-0.0084686 0.69 -0 4.0551658e-39 313 240
-0.0072377604 0.68800002 -0 4.0522945e-39 314 240
-0.0060314666 0.68800002 -0 3.9597402e-39 315 240
-0.0048251734 0.68800002 -0 3.5920549e-39 316 240
-0.0036188802 0.68800002 -0 3.7764461e-39 317 240
-0.0024125867 0.68800002 -0 3.6874945e-39 318 240
-0.0012062934 0.68800002 -0 3.5952989e-39 319 240
0 0.68800002 -0 5.1579176e-39 320 240
0.0012062934 0.68800002 -0 5.1579176e-39 321 240
0.0024125867 0.68800002 -0 5.8003891e-39 322 240
0.0036188802 0.68800002 -0 5.8925862e-39 323 240
0.0048391996 0.69 -0 5.6160077e-39 324 240
0.0060489997 0.69 -0 5.3390621e-39 325 240
0.0072693196 0.69099998 -0 5.6117043e-39 326 240
0.008480873 0.69099998 -0 5.3354775e-39 327 240
0.0096924258 0.69099998 -0 5.5191555e-39 328 240
0.010935539 0.69300002 -0 5.6113512e-39 329 240
0.012150601 0.69300002 -0 6.0694454e-39 330 240
0.01336566 0.69300002 -0 5.9768911e-39 331 240
0.014580719 0.69300002 -0 5.7921313e-39 332 240
0.015818574 0.69400001 -0 5.6999342e-39 333 240
0.017035386 0.69400001 -0 4.9648901e-39 334 240
0.0182522 0.69400001 -0 4.9648901e-39 335 240
0.019525118 0.69599998 -0 4.5053581e-39 336 240
0.020745439 0.69599998 -0 4.5053581e-39 337 240
0.021965759 0.69599998 -0 4.2312908e-39 338 240
0.023219392 0.69700003 -0 4.2312908e-39 339 240
0.024441468 0.69700003 -0 4.2305719e-39 340 240
0.025700359 0.69800001 -0 4.2305719e-39 341 240
0.026924185 0.69800001 -0 3.9550612e-39 342 240
0.028228667 0.69999999 -0 3.7703098e-39 343 240
0.029455997 0.69999999 -0 2.944868e-39 344 240
0.030727165 0.70099998 -0 2.8526723e-39 345 240
0.032093015 0.704 -0 2.6693755e-39 346 240
0.033422034 0.70599997 -0 2.6693755e-39 347 240
0.034659892 0.70599997 -0 1.5677111e-39 348 240
0.035897743 0.70599997 -0 1.2914843e-39 349 240
0.037135597 0.70599997 -0 1.9444067e-39 350 240
0.038427804 0.70700002 -0 4.80283e-39 351 240
-0.051255193 0.713 -0.0012501266 9.3110173e-39 279 241
-0.049864799 0.71100003 -0.00124662 6.0852647e-39 280 241
-0.048618179 0.71100003 -0.00124662 4.7023303e-39 281 241
-0.047504812 0.713 -0.0012501266 4.4200008e-39 282 241
-0.046254687 0.713 -0.0012501266 4.8806203e-39 283 241
-0.044878319 0.71100003 -0.00124662 5.4327094e-39 284 241
-0.043631699 0.71100003 -0.00124662 5.8014905e-39 285 241
-0.042325463 0.70999998 -0.0012448666 6.7212804e-39 286 241
-0.040964879 0.708 -0.00124136 7.0900616e-39 287 241
-0.039667413 0.70700002 -0.0012396066 7.9158734e-39 288 241
-0.038427804 0.70700002 -0.0012396066 8.1002646e-39 289 241
-0.037135597 0.70599997 -0.0012378532 8.2846615e-39 290 241
-0.035796054 0.704 -0.0012343467 8.9300309e-39 291 241
-0.034512613 0.70300001 -0.0012325933 9.3917223e-39 292 241
-0.033280019 0.70300001 -0.0012325933 1.0314039e-38 293 241
-0.031956252 0.70099998 -0.0012290865 1.0866843e-38 294 241
-0.030727165 0.70099998 -0.0012290865 1.1419658e-38 295 241
-0.029455997 0.69999999 -0.0012273333 1.1238136e-38 296 241
-0.028228667 0.69999999 -0.0012273333 1.1515083e-38 297 241
-0.026924185 0.69800001 -0.0012238267 1.1972819e-38 298 241
-0.025700359 0.69800001 -0.0012238267 1.0589884e-38 299 241
-0.024476532 0.69800001 -0.0012238267 6.3557125e-39 300 241
-0.023252707 0.69800001 -0.0012238267 2.1150863e-39 301 241
-0.02199732 0.69700003 -0.0012220733 4.7865973e-39 302 241
-0.020775247 0.69700003 -0.0012220733 7.5524662e-39 303 241
-0.019553173 0.69700003 -0.0012220733 7.4627859e-39 304 241
-0.018304799 0.69599998 -0.0012203199 6.7252209e-39 305 241
-0.017035386 0.69400001 -0.0012168133 4.7919825e-39 306 241
-0.015818574 0.69400001 -0.0012168133 3.1328213e-39 307 241
-0.014580719 0.69300002 -0.00121506 3.9607995e-39 308 241
-0.013327086 0.69099998 -0.0012115532 3.9607995e-39 309 241
-0.012115533 0.69099998 -0.0012115532 3.6853015e-39 310 241
-0.010888199 0.69 -0.0012097999 3.6853015e-39 311 241
-0.0096783992 0.69 -0.0012097999 4.0522945e-39 312 241
-0.0084440531 0.68800002 -0.0012062934 4.1444901e-39 313 241
-0.0072377604 0.68800002 -0.0012062934 3.7792992e-39 314 241
-0.0060314666 0.68800002 -0.0012062934 3.6871021e-39 315 241
-0.0048251734 0.68800002 -0.0012062934 3.1357304e-39 316 241
-0.0036188802 0.68800002 -0.0012062934 2.3981654e-39 317 241
-0.0024125867 0.68800002 -0.0012062934 3.8639572e-39 318 241
-0.0012062934 0.68800002 -0.0012062934 4.8781077e-39 319 241
0 0.68800002 -0.0012062934 5.430557e-39 320 241
0.0012062934 0.68800002 -0.0012062934 5.7993396e-39 321 241
0.0024125867 0.68800002 -0.0012062934 5.6153014e-39 322 241
0.0036188802 0.68800002 -0.0012062934 5.6153014e-39 323 241
0.0048391996 0.69 -0.0012097999 5.7968186e-39 324 241
0.0060489997 0.69 -0.0012097999 5.4280361e-39 325 241
0.0072587994 0.69 -0.0012097999 5.3351216e-39 326 241
0.0084686 0.69 -0.0012097999 5.242926e-39 327 241
0.0096924258 0.69099998 -0.0012115532 5.7021049e-39 328 241
0.01090398 0.69099998 -0.0012115532 5.7943005e-39 329 241
0.012115533 0.69099998 -0.0012115532 6.0694426e-39 330 241
0.013327086 0.69099998 -0.0012115532 5.977247e-39 331 241
0.014538639 0.69099998 -0.0012115532 5.5173423e-39 332 241
0.015795778 0.69300002 -0.00121506 5.1485597e-39 333 241
0.01701084 0.69300002 -0.00121506 4.6904584e-39 334 241
0.018225901 0.69300002 -0.00121506 4.5060672e-39 335 241
0.019469013 0.69400001 -0.0012168133 4.5064329e-39 336 241
0.020685827 0.69400001 -0.0012168133 4.4142373e-39 337 241
0.021902639 0.69400001 -0.0012168133 4.1383735e-39 338 241
0.023186078 0.69599998 -0.0012203199 4.1383735e-39 339 241
0.0244064 0.69599998 -0.0012203199 3.9547081e-39 340 241
0.025663542 0.69700003 -0.0012220733 3.8625111e-39 341 241
0.026924185 0.69800001 -0.0012238267 3.404051e-39 342 241
0.028148014 0.69800001 -0.0012238267 3.3118554e-39 343 241
0.029455997 0.69999999 -0.0012273333 2.7611998e-39 344 241
0.030727165 0.70099998 -0.0012290865 2.6690041e-39 345 241
0.032047424 0.70300001 -0.0012325933 2.4864107e-39 346 241
0.03332736 0.704 -0.0012343467 2.3942151e-39 347 241
0.034659892 0.70599997 -0.0012378532 2.2109001e-39 348 241
0.035897743 0.70599997 -0.0012378532 2.2109001e-39 349 241
0.037135597 0.70599997 -0.0012378532 5.5858559e-40 350 241
0.038373452 0.70599997 -0.0012378532 3.0478662e-39 351 241
0.039611302 0.70599997 -0.0012378532 5.8133834e-39 352 241
-0.052578956 0.71399999 -0.0025037599 8.7578436e-39 278 242
-0.051255193 0.713 -0.0025002533 8.7578436e-39 279 242
-0.050005067 0.713 -0.0025002533 4.9771249e-39 280 242
-0.048754938 0.713 -0.0025002533 4.1470055e-39 281 242
-0.047504812 0.713 -0.0025002533 4.9720998e-39 282 242
-0.046254687 0.713 -0.0025002533 5.0642955e-39 283 242
-0.044878319 0.71100003 -0.0024932399 5.2479636e-39 284 242
-0.043570329 0.70999998 -0.0024897333 5.7089418e-39 285 242
-0.042206239 0.708 -0.00248272 6.1691969e-39 286 242
-0.040964879 0.708 -0.00248272 6.4457852e-39 287 242
-0.039667413 0.70700002 -0.0024792133 6.9968037e-39 288 242
-0.038373452 0.70599997 -0.0024757064 7.1815551e-39 289 242
-0.037030395 0.704 -0.0024686933 7.9176838e-39 290 242
-0.035796054 0.704 -0.0024686933 8.5630533e-39 291 242
-0.034512613 0.70300001 -0.0024651866 9.3928041e-39 292 242
-0.03318534 0.70099998 -0.0024581731 1.0038174e-38 293 242
-0.031956252 0.70099998 -0.0024581731 1.1049799e-38 294 242
-0.030683333 0.69999999 -0.0024546667 1.1510777e-38 295 242
-0.029455997 0.69999999 -0.0024546667 1.1512928e-38 296 242
-0.028148014 0.69800001 -0.0024476533 1.1420732e-38 297 242
-0.026924185 0.69800001 -0.0024476533 1.1511115e-38 298 242
-0.025700359 0.69800001 -0.0024476533 1.1050137e-38 299 242
-0.024441468 0.69700003 -0.0024441467 9.110769e-39 300 242
-0.023219392 0.69700003 -0.0024441467 5.6995405e-39 301 242
-0.02199732 0.69700003 -0.0024441467 4.1433761e-39 302 242
-0.020745439 0.69599998 -0.0024406398 6.5404625e-39 303 242
-0.019525118 0.69599998 -0.0024406398 7.2783933e-39 304 242
-0.0182522 0.69400001 -0.0024336267 7.2783933e-39 305 242
-0.017035386 0.69400001 -0.0024336267 6.0784025e-39 306 242
-0.015818574 0.69400001 -0.0024336267 3.7738719e-39 307 242
-0.014580719 0.69300002 -0.00243012 3.5001927e-39 308 242
-0.013327086 0.69099998 -0.0024231065 3.1314116e-39 309 242
-0.012115533 0.69099998 -0.0024231065 3.0392342e-39 310 242
-0.010888199 0.69 -0.0024195998 3.1314298e-39 311 242
-0.0096503468 0.68800002 -0.0024125867 3.0403076e-39 312 242
-0.0084440531 0.68800002 -0.0024125867 3.5012857e-39 313 242
-0.0072377604 0.68800002 -0.0024125867 3.4123075e-39 314 242
-0.0060314666 0.68800002 -0.0024125867 3.3201119e-39 315 242
-0.0048251734 0.68800002 -0.0024125867 3.5916695e-39 316 242
-0.0036188802 0.68800002 -0.0024125867 3.4069195e-39 317 242
-0.0024125867 0.68800002 -0.0024125867 3.8664753e-39 318 242
-0.0012062934 0.68800002 -0.0024125867 4.6040404e-39 319 242
0 0.68800002 -0.0024125867 5.7089418e-39 320 242
0.0012062934 0.68800002 -0.0024125867 5.4323563e-39 321 242
0.0024125867 0.68800002 -0.0024125867 6.1638033e-39 322 242
0.0036188802 0.68800002 -0.0024125867 6.0716076e-39 323 242
0.0048391996 0.69 -0.0024195998 5.5202359e-39 324 242
0.0060489997 0.69 -0.0024195998 5.3358433e-39 325 242
0.0072587994 0.69 -0.0024195998 5.7021049e-39 326 242
0.0084686 0.69 -0.0024195998 5.5180737e-39 327 242
0.0096783992 0.69 -0.0024195998 5.5187926e-39 328 242
0.01090398 0.69099998 -0.0024231065 5.6109882e-39 329 242
0.012115533 0.69099998 -0.0024231065 5.7021021e-39 330 242
0.013327086 0.69099998 -0.0024231065 5.4258753e-39 331 242
0.014538639 0.69099998 -0.0024231065 5.1492814e-39 332 242
0.015750192 0.69099998 -0.0024231065 5.0570858e-39 333 242
0.01701084 0.69300002 -0.00243012 4.7815779e-39 334 242
0.018225901 0.69300002 -0.00243012 4.7815779e-39 335 242
0.01944096 0.69300002 -0.00243012 4.6890263e-39 336 242
0.020656019 0.69300002 -0.00243012 4.6890263e-39 337 242
0.021902639 0.69400001 -0.0024336267 4.2305691e-39 338 242
0.023119451 0.69400001 -0.0024336267 4.0461764e-39 339 242
0.0244064 0.69599998 -0.0024406398 3.5873633e-39 340 242
0.025663542 0.69700003 -0.0024441467 3.4951677e-39 341 242
0.026924185 0.69800001 -0.0024476533 3.1285432e-39 342 242
0.028148014 0.69800001 -0.0024476533 3.1285432e-39 343 242
0.029455997 0.69999999 -0.0024546667 2.7611998e-39 344 242
0.030683333 0.69999999 -0.0024546667 2.6690041e-39 345 242
0.032047424 0.70300001 -0.0024651866 2.3020195e-39 346 242
0.03332736 0.704 -0.0024686933 2.3020195e-39 347 242
0.034561705 0.704 -0.0024686933 2.1183485e-39 348 242
0.035897743 0.70599997 -0.0024757064 2.0261529e-39 349 242
0.037135597 0.70599997 -0.0024757064 7.4010139e-40 350 242
0.038373452 0.70599997 -0.0024757064 1.6620591e-39 351 242
0.039499093 0.704 -0.0024686933 2.8674406e-39 352 242
0.040733438 0.704 -0.0024686933 5.1723328e-39 353 242
-0.052578956 0.71399999 -0.0037556398 1.1050505e-38 278 243
-0.05132708 0.71399999 -0.0037556398 1.0220744e-38 279 243
-0.050005067 0.713 -0.0037503797 4.695143e-39 280 243
-0.048754938 0.713 -0.0037503797 4.3260017e-39 281 243
-0.047504812 0.713 -0.0037503797 5.0625004e-39 282 243
-0.046124939 0.71100003 -0.0037398601 5.0625004e-39 283 243
-0.044878319 0.71100003 -0.0037398601 5.3383614e-39 284 243
-0.043570329 0.70999998 -0.0037345996 5.6149483e-39 285 243
-0.042206239 0.708 -0.00372408 5.8915324e-39 286 243
-0.040907022 0.70700002 -0.0037188199 6.168478e-39 287 243
-0.039611302 0.70599997 -0.0037135598 6.5369046e-39 288 243
-0.038264744 0.704 -0.0037030398 6.8134915e-39 289 243
-0.037030395 0.704 -0.0037030398 7.5499831e-39 290 243
-0.035745207 0.70300001 -0.0036977797 8.1953525e-39 291 243
-0.034414422 0.70099998 -0.0036872597 9.2077038e-39 292 243
-0.03318534 0.70099998 -0.0036872597 9.7608776e-39 293 243
-0.031910665 0.69999999 -0.0036819996 1.0864338e-38 294 243
-0.030683333 0.69999999 -0.0036819996 1.1417512e-38 295 243
-0.029455997 0.69999999 -0.0036819996 1.1419307e-38 296 243
-0.028148014 0.69800001 -0.0036714801 1.1327112e-38 297 243
-0.026924185 0.69800001 -0.0036714801 1.0959035e-38 298 243
-0.025663542 0.69700003 -0.00366622 1.1143068e-38 299 243
-0.024441468 0.69700003 -0.00366622 1.1416386e-38 300 243
-0.023219392 0.69700003 -0.00366622 7.9125915e-39 301 243
-0.021965759 0.69599998 -0.0036609597 5.7049383e-39 302 243
-0.020745439 0.69599998 -0.0036609597 6.6268946e-39 303 243
-0.019525118 0.69599998 -0.0036609597 7.2737241e-39 304 243
-0.0182522 0.69400001 -0.0036504399 7.9190936e-39 305 243
-0.017035386 0.69400001 -0.0036504399 7.2758737e-39 306 243
-0.015795778 0.69300002 -0.0036451798 5.5245155e-39 307 243
-0.014580719 0.69300002 -0.0036451798 3.8682312e-39 308 243
-0.01336566 0.69300002 -0.0036451798 3.2228618e-39 309 243
-0.012115533 0.69099998 -0.0036346598 3.3132805e-39 310 243
