# .PCD v.7 - Point Cloud Data file format
FIELDS x y z rgb imX imY
SIZE 4 4 4 4 4 4
TYPE F F F F F F
COUNT 1 1 1 1 1 1
WIDTH 834
HEIGHT 1
VIEWPOINT 0 0 0 1 0 0 0
POINTS 834
DATA ascii
0.032853961 0.69400001 -0.052322973 2.7608522e-39 347 283
0.034070771 0.69400001 -0.052322973 2.9441673e-39 348 283
0.035287585 0.69400001 -0.052322973 2.9441673e-39 349 283
0.036504399 0.69400001 -0.052322973 2.7604963e-39 350 283
0.037721213 0.69400001 -0.052322973 2.7604963e-39 351 283
0.038938027 0.69400001 -0.052322973 3.0356413e-39 352 283
0.040154841 0.69400001 -0.052322973 3.1278369e-39 353 283
0.041490879 0.69599998 -0.052473757 3.4044182e-39 354 283
0.042711195 0.69599998 -0.052473757 3.4969725e-39 355 283
0.043994639 0.69700003 -0.052549154 3.3136575e-39 356 283
0.045281585 0.69800001 -0.052624546 3.3136575e-39 357 283
0.046505414 0.69800001 -0.052624546 3.3133044e-39 358 283
0.047865998 0.69999999 -0.052775331 3.4973355e-39 359 283
0.049303733 0.70300001 -0.053001512 3.589178e-39 360 283
0.050608214 0.704 -0.053076904 3.866125e-39 361 283
0.051989835 0.70599997 -0.053227689 3.6853323e-39 362 283
0.053227689 0.70599997 -0.053227689 4.1459517e-39 363 283
0.054542694 0.70700002 -0.053303085 4.146302e-39 364 283
0.055782299 0.70700002 -0.053303085 7.8341272e-39 365 283
0.057021905 0.70700002 -0.053303085 1.2075845e-38 366 283
0.05826151 0.70700002 -0.053303085 1.72388e-38 367 283
-0.013693533 0.70999998 -0.054774132 1.2264915e-38 309 284
-0.012448666 0.70999998 -0.054774132 1.004538e-38 310 284
-0.01117224 0.708 -0.054619838 8.3858591e-39 311 284
-0.0099168532 0.70700002 -0.054542694 8.9303952e-39 312 284
-0.0086649731 0.70599997 -0.054465543 7.916602e-39 313 284
-0.0074271196 0.70599997 -0.054465543 7.4520296e-39 314 284
-0.0061717331 0.704 -0.054311249 6.8988572e-39 315 284
-0.0049303733 0.70300001 -0.054234106 6.16309e-39 316 284
-0.0036872597 0.70099998 -0.054079808 5.886143e-39 317 284
-0.0024546667 0.69999999 -0.054002665 5.2432917e-39 318 284
-0.0012273333 0.69999999 -0.054002665 5.1510961e-39 319 284
0 0.69800001 -0.053848371 4.69192e-39 320 284
0.0012238267 0.69800001 -0.053848371 4.5075273e-39 321 284
0.0024441467 0.69700003 -0.053771228 4.5993712e-39 322 284
0.00366622 0.69700003 -0.053771228 4.5071756e-39 323 284
0.0048812795 0.69599998 -0.053694077 3.8639698e-39 324 284
0.0060840664 0.69400001 -0.053539783 3.7717742e-39 325 284
0.0073008798 0.69400001 -0.053539783 3.4962663e-39 326 284
0.0085176928 0.69400001 -0.053539783 3.4962663e-39 327 284
0.0097204801 0.69300002 -0.053462639 3.2214717e-39 328 284
0.010935539 0.69300002 -0.053462639 3.314026e-39 329 284
0.012150601 0.69300002 -0.053462639 3.2214745e-39 330 284
0.01336566 0.69300002 -0.053462639 3.2214745e-39 331 284
0.014580719 0.69300002 -0.053462639 2.9463295e-39 332 284
0.015795778 0.69300002 -0.053462639 3.0385251e-39 333 284
0.01701084 0.69300002 -0.053462639 3.0385251e-39 334 284
0.018225901 0.69300002 -0.053462639 3.1310795e-39 335 284
0.01944096 0.69300002 -0.053462639 3.2229192e-39 336 284
0.020656019 0.69300002 -0.053462639 3.2229192e-39 337 284
0.021871079 0.69300002 -0.053462639 3.1307236e-39 338 284
0.02308614 0.69300002 -0.053462639 3.1307236e-39 339 284
0.024301201 0.69300002 -0.053462639 3.1300047e-39 340 284
0.02551626 0.69300002 -0.053462639 3.0378091e-39 341 284
0.02673132 0.69300002 -0.053462639 3.4969852e-39 342 284
0.027946379 0.69300002 -0.053462639 3.312954e-39 343 284
0.029203519 0.69400001 -0.053539783 3.2207528e-39 344 284
0.030420333 0.69400001 -0.053539783 3.1285572e-39 345 284
0.031637147 0.69400001 -0.053539783 3.1289131e-39 346 284
0.032853961 0.69400001 -0.053539783 3.0363573e-39 347 284
0.034070771 0.69400001 -0.053539783 2.8530451e-39 348 284
0.035287585 0.69400001 -0.053539783 2.8530451e-39 349 284
0.036504399 0.69400001 -0.053539783 2.8530451e-39 350 284
0.037721213 0.69400001 -0.053539783 2.8530451e-39 351 284
0.038938027 0.69400001 -0.053539783 3.3115023e-39 352 284
0.040154841 0.69400001 -0.053539783 3.4036993e-39 353 284
0.041490879 0.69599998 -0.053694077 3.680282e-39 354 284
0.042711195 0.69599998 -0.053694077 3.680282e-39 355 284
0.043994639 0.69700003 -0.053771228 3.4976886e-39 356 284
0.045281585 0.69800001 -0.053848371 3.4976886e-39 357 284
0.046505414 0.69800001 -0.053848371 3.5891682e-39 358 284
0.047865998 0.69999999 -0.054002665 3.6813638e-39 359 284
0.049303733 0.70300001 -0.054234106 3.4984145e-39 360 284
0.050751984 0.70599997 -0.054465543 3.7750014e-39 361 284
0.051989835 0.70599997 -0.054465543 3.8693592e-39 362 284
0.053303085 0.70700002 -0.054542694 4.1463048e-39 363 284
0.054542694 0.70700002 -0.054542694 4.0551784e-39 364 284
0.055861197 0.708 -0.054619838 9.0341025e-39 365 284
0.057102561 0.708 -0.054619838 1.2446423e-38 366 284
0.058343921 0.708 -0.054619838 1.6411193e-38 367 284
-0.013693533 0.70999998 -0.056018997 1.2629369e-38 309 285
-0.012448666 0.70999998 -0.056018997 1.1058085e-38 310 285
-0.01117224 0.708 -0.055861197 9.2145309e-39 311 285
-0.0099168532 0.70700002 -0.055782299 9.0236657e-39 312 285
-0.0086649731 0.70599997 -0.055703394 7.8251225e-39 313 285
-0.0074271196 0.70599997 -0.055703394 7.1793901e-39 314 285
-0.0061717331 0.704 -0.055545598 6.5340207e-39 315 285
-0.0049303733 0.70300001 -0.0554667 6.4396699e-39 316 285
-0.0036872597 0.70099998 -0.055308893 5.9786931e-39 317 285
-0.0024581731 0.70099998 -0.055308893 5.6113512e-39 318 285
-0.0012273333 0.69999999 -0.055229999 5.3351244e-39 319 285
0 0.69800001 -0.0550722 4.6922759e-39 320 285
0.0012238267 0.69800001 -0.0550722 4.6922759e-39 321 285
0.0024441467 0.69700003 -0.054993302 4.2323866e-39 322 285
0.0036609597 0.69599998 -0.054914396 4.1401896e-39 323 285
0.0048672534 0.69400001 -0.054756597 3.9558053e-39 324 285
0.0060840664 0.69400001 -0.054756597 3.7710553e-39 325 285
0.0073008798 0.69400001 -0.054756597 3.4962635e-39 326 285
0.0085176928 0.69400001 -0.054756597 3.4962635e-39 327 285
0.0097204801 0.69300002 -0.054677699 3.3133072e-39 328 285
0.010935539 0.69300002 -0.054677699 3.3133072e-39 329 285
0.012150601 0.69300002 -0.054677699 3.4962635e-39 330 285
0.01336566 0.69300002 -0.054677699 3.5888179e-39 331 285
0.014580719 0.69300002 -0.054677699 3.314026e-39 332 285
0.015795778 0.69300002 -0.054677699 3.314026e-39 333 285
0.01701084 0.69300002 -0.054677699 3.2225535e-39 334 285
0.018225901 0.69300002 -0.054677699 3.2225535e-39 335 285
0.01944096 0.69300002 -0.054677699 3.2232751e-39 336 285
0.020656019 0.69300002 -0.054677699 3.2232751e-39 337 285
0.021871079 0.69300002 -0.054677699 3.4065902e-39 338 285
0.02308614 0.69300002 -0.054677699 3.2222003e-39 339 285
0.024301201 0.69300002 -0.054677699 3.2222003e-39 340 285
0.02551626 0.69300002 -0.054677699 3.1300047e-39 341 285
0.02673132 0.69300002 -0.054677699 3.4969824e-39 342 285
0.027946379 0.69300002 -0.054677699 3.4969824e-39 343 285
0.029203519 0.69400001 -0.054756597 3.4966166e-39 344 285
0.030420333 0.69400001 -0.054756597 3.404421e-39 345 285
0.031637147 0.69400001 -0.054756597 2.945598e-39 346 285
0.032853961 0.69400001 -0.054756597 2.945598e-39 347 285
0.034070771 0.69400001 -0.054756597 2.945598e-39 348 285
0.035287585 0.69400001 -0.054756597 2.853401e-39 349 285
0.036504399 0.69400001 -0.054756597 3.0367105e-39 350 285
0.037721213 0.69400001 -0.054756597 3.0367105e-39 351 285
0.038938027 0.69400001 -0.054756597 3.3125771e-39 352 285
0.040154841 0.69400001 -0.054756597 3.3125771e-39 353 285
0.041490879 0.69599998 -0.054914396 3.680282e-39 354 285
0.042772565 0.69700003 -0.054993302 3.7724776e-39 355 285
0.043994639 0.69700003 -0.054993302 3.7724776e-39 356 285
0.045281585 0.69800001 -0.0550722 3.8646733e-39 357 285
0.046638668 0.69999999 -0.055229999 3.589887e-39 358 285
0.047934376 0.70099998 -0.055308893 3.6820827e-39 359 285
0.049373865 0.704 -0.055545598 3.7742825e-39 360 285
0.050751984 0.70599997 -0.055703394 4.1427049e-39 361 285
0.05206348 0.70700002 -0.055782299 3.7782426e-39 362 285
0.053303085 0.70700002 -0.055782299 4.2392193e-39 363 285
0.054542694 0.70700002 -0.055782299 4.2395725e-39 364 285
0.055861197 0.708 -0.055861197 1.0047897e-38 365 285
0.057102561 0.708 -0.055861197 1.3366218e-38 366 285
-0.013693533 0.70999998 -0.057263866 1.4287086e-38 309 286
-0.012448666 0.70999998 -0.057263866 1.2438501e-38 310 286
-0.011203799 0.70999998 -0.057263866 1.0225806e-38 311 286
-0.0099168532 0.70700002 -0.057021905 9.4835704e-39 312 286
-0.008677247 0.70700002 -0.057021905 8.100636e-39 313 286
-0.0074271196 0.70599997 -0.056941248 7.0890022e-39 314 286
-0.0061717331 0.704 -0.056779943 6.5358298e-39 315 286
-0.0049373866 0.704 -0.056779943 6.2578038e-39 316 286
-0.0036977797 0.70300001 -0.056699295 5.8886611e-39 317 286
-0.0024581731 0.70099998 -0.056537982 5.5202359e-39 318 286
-0.0012273333 0.69999999 -0.056457333 5.2436476e-39 319 286
0 0.69800001 -0.056296028 4.6926389e-39 320 286
0.0012238267 0.69800001 -0.056296028 4.5082476e-39 321 286
0.0024441467 0.69700003 -0.056215372 4.1398336e-39 322 286
0.0036609597 0.69599998 -0.056134716 3.9558025e-39 323 286
0.0048672534 0.69400001 -0.055973411 3.771777e-39 324 286
0.0060840664 0.69400001 -0.055973411 3.771777e-39 325 286
0.0073008798 0.69400001 -0.055973411 3.4962663e-39 326 286
0.0085176928 0.69400001 -0.055973411 3.4962663e-39 327 286
0.0097345067 0.69400001 -0.055973411 3.3136701e-39 328 286
0.010935539 0.69300002 -0.055892758 3.2214745e-39 329 286
0.012150601 0.69300002 -0.055892758 3.4058685e-39 330 286
0.01336566 0.69300002 -0.055892758 3.4058685e-39 331 286
0.014580719 0.69300002 -0.055892758 3.1307236e-39 332 286
0.015795778 0.69300002 -0.055892758 3.1307236e-39 333 286
0.01701084 0.69300002 -0.055892758 3.2222031e-39 334 286
0.018225901 0.69300002 -0.055892758 3.4062343e-39 335 286
0.01944096 0.69300002 -0.055892758 3.222922e-39 336 286
0.020656019 0.69300002 -0.055892758 3.222922e-39 337 286
0.021871079 0.69300002 -0.055892758 3.4062343e-39 338 286
0.02308614 0.69300002 -0.055892758 3.4062343e-39 339 286
0.024301201 0.69300002 -0.055892758 3.4980642e-39 340 286
0.02551626 0.69300002 -0.055892758 3.4058685e-39 341 286
0.02673132 0.69300002 -0.055892758 3.4969824e-39 342 286
0.027946379 0.69300002 -0.055892758 3.4969824e-39 343 286
0.029203519 0.69400001 -0.055973411 3.4958978e-39 344 286
0.030420333 0.69400001 -0.055973411 3.4037021e-39 345 286
0.031637147 0.69400001 -0.055973411 2.9452421e-39 346 286
0.032853961 0.69400001 -0.055973411 2.8530451e-39 347 286
0.034070771 0.69400001 -0.055973411 2.8530451e-39 348 286
0.035287585 0.69400001 -0.055973411 2.8530451e-39 349 286
0.036504399 0.69400001 -0.055973411 3.0367133e-39 350 286
0.037721213 0.69400001 -0.055973411 3.0367133e-39 351 286
0.038938027 0.69400001 -0.055973411 3.5873703e-39 352 286
0.040154841 0.69400001 -0.055973411 3.5873703e-39 353 286
0.041490879 0.69599998 -0.056134716 3.680282e-39 354 286
0.042772565 0.69700003 -0.056215372 3.7724776e-39 355 286
0.04405776 0.69800001 -0.056296028 3.7724804e-39 356 286
0.04541133 0.69999999 -0.056457333 3.8646761e-39 357 286
0.046705291 0.70099998 -0.056537982 3.6817267e-39 358 286
0.048071139 0.70300001 -0.056699295 3.7742825e-39 359 286
0.049373865 0.704 -0.056779943 3.6820827e-39 360 286
0.050751984 0.70599997 -0.056941248 4.1427021e-39 361 286
0.05206348 0.70700002 -0.057021905 4.2370529e-39 362 286
0.053303085 0.70700002 -0.057021905 4.4214442e-39 363 286
0.054542694 0.70700002 -0.057021905 3.964059e-39 364 286
0.056018997 0.70999998 -0.057263866 1.0602144e-38 365 286
0.057263866 0.70999998 -0.057263866 1.4564761e-38 366 286
-0.015716879 0.74699998 -0.061557774 1.447616e-38 308 287
-0.013693533 0.70999998 -0.058508728 1.3738595e-38 309 287
-0.012448666 0.70999998 -0.058508728 1.2441744e-38 310 287
-0.01117224 0.708 -0.058343921 1.0136853e-38 311 287
-0.0099308798 0.708 -0.058343921 9.8530732e-39 312 287
-0.008677247 0.70700002 -0.05826151 8.193912e-39 313 287
-0.0074271196 0.70599997 -0.058179103 7.4563442e-39 314 287
-0.0061892662 0.70599997 -0.058179103 6.8109748e-39 315 287
-0.0049373866 0.704 -0.058014292 6.8088125e-39 316 287
-0.0036977797 0.70300001 -0.057931885 6.4396699e-39 317 287
-0.0024581731 0.70099998 -0.057767071 5.8872136e-39 318 287
-0.0012290865 0.70099998 -0.057767071 5.5187898e-39 319 287
0 0.69999999 -0.05768466 4.8748693e-39 320 287
0.0012238267 0.69800001 -0.057519849 4.7826723e-39 321 287
0.0024441467 0.69700003 -0.05743745 4.2316663e-39 322 287
0.0036609597 0.69599998 -0.057355035 4.2316663e-39 323 287
0.0048812795 0.69599998 -0.057355035 3.9558053e-39 324 287
0.0060840664 0.69400001 -0.057190225 3.8636097e-39 325 287
0.0073008798 0.69400001 -0.057190225 3.7721301e-39 326 287
0.0085176928 0.69400001 -0.057190225 3.6799345e-39 327 287
0.0097345067 0.69400001 -0.057190225 3.3129512e-39 328 287
0.01095132 0.69400001 -0.057190225 3.4969824e-39 329 287
0.012150601 0.69300002 -0.057107817 3.6817323e-39 330 287
0.01336566 0.69300002 -0.057107817 3.6817323e-39 331 287
0.014580719 0.69300002 -0.057107817 3.5902612e-39 332 287
0.015795778 0.69300002 -0.057107817 3.5902612e-39 333 287
0.01701084 0.69300002 -0.057107817 3.2222031e-39 334 287
0.018225901 0.69300002 -0.057107817 3.4062343e-39 335 287
0.01944096 0.69300002 -0.057107817 3.0392538e-39 336 287
0.020656019 0.69300002 -0.057107817 3.0392538e-39 337 287
0.021871079 0.69300002 -0.057107817 3.2229192e-39 338 287
0.02308614 0.69300002 -0.057107817 3.2229192e-39 339 287
0.024301201 0.69300002 -0.057107817 3.4980614e-39 340 287
0.025553079 0.69400001 -0.057190225 3.4058657e-39 341 287
0.026769891 0.69400001 -0.057190225 3.5888151e-39 342 287
0.027986705 0.69400001 -0.057190225 3.4966194e-39 343 287
0.029203519 0.69400001 -0.057190225 3.4958978e-39 344 287
0.030420333 0.69400001 -0.057190225 3.4037021e-39 345 287
0.031637147 0.69400001 -0.057190225 3.1289103e-39 346 287
0.032853961 0.69400001 -0.057190225 3.1289103e-39 347 287
0.034070771 0.69400001 -0.057190225 2.7608466e-39 348 287
0.035287585 0.69400001 -0.057190225 2.853401e-39 349 287
0.036504399 0.69400001 -0.057190225 3.0359944e-39 350 287
0.037829921 0.69599998 -0.057355035 3.12819e-39 351 287
0.039050236 0.69599998 -0.057355035 3.5873703e-39 352 287
0.040270556 0.69599998 -0.057355035 3.7717616e-39 353 287
0.041550495 0.69700003 -0.05743745 3.680282e-39 354 287
0.042772565 0.69700003 -0.05743745 3.7724776e-39 355 287
0.044183996 0.69999999 -0.05768466 4.0472695e-39 356 287
0.04541133 0.69999999 -0.05768466 4.2320195e-39 357 287
0.046705291 0.70099998 -0.057767071 4.0490715e-39 358 287
0.048071139 0.70300001 -0.057931885 4.0490715e-39 359 287
0.049373865 0.704 -0.058014292 3.7750014e-39 360 287
0.050751984 0.70599997 -0.058179103 4.0515883e-39 361 287
0.05206348 0.70700002 -0.05826151 3.8707941e-39 362 287
0.053303085 0.70700002 -0.05826151 3.7785985e-39 363 287
0.054542694 0.70700002 -0.05826151 4.7902225e-39 364 287
0.055782299 0.70700002 -0.05826151 1.2350624e-38 365 287
-0.015716879 0.74699998 -0.062867515 1.2909186e-38 308 288
-0.014407139 0.74699998 -0.062867515 1.281699e-38 309 288
-0.012448666 0.70999998 -0.059753593 1.235134e-38 310 288
-0.01117224 0.708 -0.059585281 1.0507786e-38 311 288
-0.0099308798 0.708 -0.059585281 1.0223651e-38 312 288
-0.008677247 0.70700002 -0.059501119 8.2875426e-39 313 288
-0.0074376399 0.70700002 -0.059501119 8.0999171e-39 314 288
-0.0061892662 0.70599997 -0.059416957 7.4545477e-39 315 288
-0.0049514128 0.70599997 -0.059416957 6.8088224e-39 316 288
-0.0037030398 0.704 -0.059248637 6.2556486e-39 317 288
-0.0024651866 0.70300001 -0.059164476 5.7042699e-39 318 288
-0.0012290865 0.70099998 -0.058996156 5.3358461e-39 319 288
0 0.69999999 -0.058911994 4.7841156e-39 320 288
0.0012273333 0.69999999 -0.058911994 4.5075273e-39 321 288
0.0024476533 0.69800001 -0.058743682 4.2316663e-39 322 288
0.00366622 0.69700003 -0.05865952 4.1394707e-39 323 288
0.0048812795 0.69599998 -0.058575355 3.7721301e-39 324 288
0.0061015999 0.69599998 -0.058575355 3.7721301e-39 325 288
0.0073008798 0.69400001 -0.058407038 3.5888179e-39 326 288
0.0085176928 0.69400001 -0.058407038 3.6810135e-39 327 288
0.0097345067 0.69400001 -0.058407038 3.4058657e-39 328 288
0.01095132 0.69400001 -0.058407038 3.4058657e-39 329 288
0.012168133 0.69400001 -0.058407038 3.5906171e-39 330 288
0.01336566 0.69300002 -0.058322877 3.5906171e-39 331 288
0.014580719 0.69300002 -0.058322877 3.4984313e-39 332 288
0.015795778 0.69300002 -0.058322877 3.2222031e-39 333 288
0.01701084 0.69300002 -0.058322877 3.2225689e-39 334 288
0.018225901 0.69300002 -0.058322877 3.1303733e-39 335 288
0.01944096 0.69300002 -0.058322877 3.1303704e-39 336 288
0.020656019 0.69300002 -0.058322877 3.1303704e-39 337 288
0.021871079 0.69300002 -0.058322877 3.4055154e-39 338 288
0.02308614 0.69300002 -0.058322877 3.497711e-39 339 288
0.024336265 0.69400001 -0.058407038 3.4058713e-39 340 288
0.025553079 0.69400001 -0.058407038 3.313317e-39 341 288
0.026769891 0.69400001 -0.058407038 3.7717742e-39 342 288
0.027986705 0.69400001 -0.058407038 3.6795786e-39 343 288
0.029203519 0.69400001 -0.058407038 3.4040679e-39 344 288
0.030420333 0.69400001 -0.058407038 3.3118722e-39 345 288
0.031637147 0.69400001 -0.058407038 3.1289131e-39 346 288
0.032853961 0.69400001 -0.058407038 3.0363573e-39 347 288
0.034070771 0.69400001 -0.058407038 2.853401e-39 348 288
0.035287585 0.69400001 -0.058407038 2.7608466e-39 349 288
0.036609598 0.69599998 -0.058575355 3.12819e-39 350 288
0.037829921 0.69599998 -0.058575355 3.3122226e-39 351 288
0.039050236 0.69599998 -0.058575355 3.4969725e-39 352 288
0.040270556 0.69599998 -0.058575355 3.4969725e-39 353 288
0.041550495 0.69700003 -0.05865952 3.8646761e-39 354 288
0.042833932 0.69800001 -0.058743682 3.8646761e-39 355 288
0.044183996 0.69999999 -0.058911994 3.9568745e-39 356 288
0.04541133 0.69999999 -0.058911994 4.0490715e-39 357 288
0.046705291 0.70099998 -0.058996156 4.0497876e-39 358 288
0.048071139 0.70300001 -0.059164476 4.142342e-39 359 288
0.049373865 0.704 -0.059248637 3.7760776e-39 360 288
0.050823875 0.70700002 -0.059501119 4.0523043e-39 361 288
0.05206348 0.70700002 -0.059501119 4.4207211e-39 362 288
0.053303085 0.70700002 -0.059501119 4.5129167e-39 363 288
0.054619838 0.708 -0.059585281 6.0823976e-39 364 288
0.055861197 0.708 -0.059585281 1.3642079e-38 365 288
-0.017026618 0.74699998 -0.06417726 1.4476882e-38 307 289
-0.015716879 0.74699998 -0.06417726 1.3460562e-38 308 289
-0.014407139 0.74699998 -0.06417726 1.2999584e-38 309 289
-0.012448666 0.70999998 -0.060998458 1.2260944e-38 310 289
-0.011203799 0.70999998 -0.060998458 1.0878008e-38 311 289
-0.0099308798 0.708 -0.060826641 1.0593512e-38 312 289
-0.008689519 0.708 -0.060826641 8.4730128e-39 313 289
-0.0074376399 0.70700002 -0.060740728 8.2850258e-39 314 289
-0.0061892662 0.70599997 -0.060654808 7.5474594e-39 315 289
-0.0049514128 0.70599997 -0.060654808 6.9935667e-39 316 289
-0.0037030398 0.704 -0.060482983 6.5325886e-39 317 289
-0.0024686933 0.704 -0.060482983 5.705702e-39 318 289
-0.0012325933 0.70300001 -0.06039707 5.4287564e-39 319 289
0 0.70099998 -0.060225245 4.967781e-39 320 289
0.0012273333 0.69999999 -0.060139328 4.7833898e-39 321 289
0.0024476533 0.69800001 -0.059967503 4.3238606e-39 322 289
0.0036714801 0.69800001 -0.059967503 4.2316635e-39 323 289
0.0048882933 0.69700003 -0.05988159 3.9557997e-39 324 289
0.0061015999 0.69599998 -0.059795678 3.9557997e-39 325 289
0.0073219193 0.69599998 -0.059795678 3.314026e-39 326 289
0.0085176928 0.69400001 -0.059623852 3.4062217e-39 327 289
0.0097345067 0.69400001 -0.059623852 3.4058657e-39 328 289
0.01095132 0.69400001 -0.059623852 3.4980614e-39 329 289
0.012168133 0.69400001 -0.059623852 3.4065874e-39 330 289
0.01336566 0.69300002 -0.05953794 3.4065874e-39 331 289
0.014580719 0.69300002 -0.05953794 3.497711e-39 332 289
0.015795778 0.69300002 -0.05953794 3.4055154e-39 333 289
0.01701084 0.69300002 -0.05953794 3.2222059e-39 334 289
0.018225901 0.69300002 -0.05953794 3.1296516e-39 335 289
0.01944096 0.69300002 -0.05953794 3.4055154e-39 336 289
0.020656019 0.69300002 -0.05953794 3.4055154e-39 337 289
0.021902639 0.69400001 -0.059623852 3.4055154e-39 338 289
0.023119451 0.69400001 -0.059623852 3.4055154e-39 339 289
0.024336265 0.69400001 -0.059623852 3.496988e-39 340 289
0.025553079 0.69400001 -0.059623852 3.496988e-39 341 289
0.026769891 0.69400001 -0.059623852 3.7721301e-39 342 289
0.027986705 0.69400001 -0.059623852 3.6799345e-39 343 289
0.029203519 0.69400001 -0.059623852 3.2207556e-39 344 289
0.030420333 0.69400001 -0.059623852 3.12856e-39 345 289
0.031637147 0.69400001 -0.059623852 3.0363573e-39 346 289
0.032853961 0.69400001 -0.059623852 2.9441617e-39 347 289
0.034168959 0.69599998 -0.059795678 2.9445176e-39 348 289
0.035389278 0.69599998 -0.059795678 2.9445176e-39 349 289
0.036609598 0.69599998 -0.059795678 3.0367105e-39 350 289
0.037884273 0.69700003 -0.05988159 3.2214619e-39 351 289
0.039106347 0.69700003 -0.05988159 3.4976886e-39 352 289
0.040328421 0.69700003 -0.05988159 3.4976886e-39 353 289
0.041610107 0.69800001 -0.059967503 3.8646789e-39 354 289
0.042833932 0.69800001 -0.059967503 3.8646789e-39 355 289
0.044183996 0.69999999 -0.060139328 3.9575906e-39 356 289
0.04541133 0.69999999 -0.060139328 4.142342e-39 357 289
0.046905171 0.704 -0.060482983 4.418203e-39 358 289
0.048139516 0.704 -0.060482983 4.418203e-39 359 289
0.04951413 0.70599997 -0.060654808 3.8686291e-39 360 289
0.050823875 0.70700002 -0.060740728 4.1448559e-39 361 289
0.05206348 0.70700002 -0.060740728 4.2366858e-39 362 289
0.053303085 0.70700002 -0.060740728 5.7114571e-39 363 289
0.054619838 0.708 -0.060826641 9.1226982e-39 364 289
0.055861197 0.708 -0.060826641 1.5115414e-38 365 289
-0.017026618 0.74699998 -0.065486997 1.4661276e-38 307 290
-0.015716879 0.74699998 -0.065486997 1.4014825e-38 308 290
-0.014407139 0.74699998 -0.065486997 1.3093228e-38 309 290
-0.013097399 0.74699998 -0.065486997 1.2170915e-38 310 290
-0.011203799 0.70999998 -0.062243331 1.0880176e-38 311 290
-0.0099308798 0.708 -0.062068 1.1055569e-38 312 290
-0.008689519 0.708 -0.062068 9.0272656e-39 313 290
-0.0074376399 0.70700002 -0.061980337 8.8381982e-39 314 290
-0.0061892662 0.70599997 -0.061892662 7.7322108e-39 315 290
-0.0049514128 0.70599997 -0.061892662 7.0864854e-39 316 290
-0.0037030398 0.704 -0.061717331 6.5333117e-39 317 290
-0.0024686933 0.704 -0.061717331 6.0737614e-39 318 290
-0.0012325933 0.70300001 -0.061629668 5.7968158e-39 319 290
0 0.70099998 -0.06145433 5.3365593e-39 320 290
0.0012273333 0.69999999 -0.061366666 4.8759413e-39 321 290
0.0024546667 0.69999999 -0.061366666 4.5075245e-39 322 290
0.0036714801 0.69800001 -0.061191335 4.4153289e-39 323 290
0.0048882933 0.69700003 -0.061103668 3.9568745e-39 324 290
0.0061103669 0.69700003 -0.061103668 3.8646789e-39 325 290
0.0073219193 0.69599998 -0.061015997 3.6817323e-39 326 290
0.0085422397 0.69599998 -0.061015997 3.6817323e-39 327 290
0.0097345067 0.69400001 -0.060840666 3.6813764e-39 328 290
0.01095132 0.69400001 -0.060840666 3.6813764e-39 329 290
0.012168133 0.69400001 -0.060840666 3.4065902e-39 330 290
0.013384946 0.69400001 -0.060840666 3.4065902e-39 331 290
0.01460176 0.69400001 -0.060840666 3.4058713e-39 332 290
0.015795778 0.69300002 -0.060752999 3.4058713e-39 333 290
0.01701084 0.69300002 -0.060752999 3.313317e-39 334 290
0.018225901 0.69300002 -0.060752999 3.4058713e-39 335 290
0.01944096 0.69300002 -0.060752999 3.496988e-39 336 290
0.020656019 0.69300002 -0.060752999 3.5891836e-39 337 290
0.021902639 0.69400001 -0.060840666 3.5884647e-39 338 290
0.023119451 0.69400001 -0.060840666 3.6806604e-39 339 290
0.024336265 0.69400001 -0.060840666 3.4058713e-39 340 290
0.025553079 0.69400001 -0.060840666 3.313317e-39 341 290
0.026769891 0.69400001 -0.060840666 3.4040707e-39 342 290
0.027986705 0.69400001 -0.060840666 3.311875e-39 343 290
0.029203519 0.69400001 -0.060840666 3.12856e-39 344 290
0.030420333 0.69400001 -0.060840666 3.0363629e-39 345 290
0.031728316 0.69599998 -0.061015997 2.8530451e-39 346 290
0.032948639 0.69599998 -0.061015997 2.7608494e-39 347 290
0.034168959 0.69599998 -0.061015997 3.0359944e-39 348 290
0.035389278 0.69599998 -0.061015997 3.12819e-39 349 290
0.036662199 0.69700003 -0.061103668 3.3125771e-39 350 290
0.037884273 0.69700003 -0.061103668 3.4047741e-39 351 290
0.039162453 0.69800001 -0.061191335 3.7724804e-39 352 290
0.040386278 0.69800001 -0.061191335 3.8646761e-39 353 290
0.041610107 0.69800001 -0.061191335 3.9568745e-39 354 290
0.042956665 0.69999999 -0.061366666 4.0490715e-39 355 290
0.044183996 0.69999999 -0.061366666 4.0497904e-39 356 290
0.045476202 0.70099998 -0.06145433 4.141986e-39 357 290
0.046905171 0.704 -0.061717331 4.5093238e-39 358 290
0.048139516 0.704 -0.061717331 4.6018782e-39 359 290
0.04951413 0.70599997 -0.061892662 4.3274521e-39 360 290
0.050823875 0.70700002 -0.061980337 4.4196477e-39 361 290
0.05206348 0.70700002 -0.061980337 3.8668285e-39 362 290
0.053303085 0.70700002 -0.061980337 7.2780668e-39 363 290
0.054619838 0.708 -0.062068 1.1798169e-38 364 290
-0.01575896 0.74900001 -0.066975579 1.4569799e-38 308 291
-0.014445714 0.74900001 -0.066975579 1.3371256e-38 309 291
-0.013097399 0.74699998 -0.066796735 1.189577e-38 310 291
-0.011203799 0.70999998 -0.063488193 1.0789781e-38 311 291
-0.0099589331 0.70999998 -0.063488193 1.1884251e-38 312 291
-0.008689519 0.708 -0.063309364 1.0132534e-38 313 291
-0.0074481601 0.708 -0.063309364 9.3917251e-39 314 291
-0.0061980332 0.70700002 -0.063219935 7.8244008e-39 315 291
-0.0049514128 0.70599997 -0.063130513 7.2719515e-39 316 291
-0.0037135598 0.70599997 -0.063130513 6.6265821e-39 317 291
-0.0024686933 0.704 -0.062951677 6.0741258e-39 318 291
-0.0012325933 0.70300001 -0.062862262 5.705702e-39 319 291
0 0.70300001 -0.062862262 5.2454469e-39 320 291
0.0012290865 0.70099998 -0.062683418 4.9684999e-39 321 291
0.0024546667 0.69999999 -0.062593997 4.69192e-39 322 291
0.0036714801 0.69800001 -0.062415157 4.5997244e-39 323 291
0.0048953067 0.69800001 -0.062415157 4.0490743e-39 324 291
0.0061103669 0.69700003 -0.062325738 3.9565186e-39 325 291
0.00733244 0.69700003 -0.062325738 3.9565214e-39 326 291
0.0085545136 0.69700003 -0.062325738 4.0487184e-39 327 291
0.0097625591 0.69599998 -0.062236317 3.7735735e-39 328 291
0.010982879 0.69599998 -0.062236317 3.7735735e-39 329 291
0.012168133 0.69400001 -0.06205748 3.4058685e-39 330 291
0.013384946 0.69400001 -0.06205748 3.4058685e-39 331 291
0.01460176 0.69400001 -0.06205748 3.4058685e-39 332 291
0.015818574 0.69400001 -0.06205748 3.3136729e-39 333 291
0.017035386 0.69400001 -0.06205748 3.4969852e-39 334 291
0.018225901 0.69300002 -0.061968062 3.4969852e-39 335 291
0.01944096 0.69300002 -0.061968062 3.312954e-39 336 291
0.020656019 0.69300002 -0.061968062 3.4969852e-39 337 291
0.021902639 0.69400001 -0.06205748 3.4969852e-39 338 291
0.023119451 0.69400001 -0.06205748 3.5891808e-39 339 291
0.024336265 0.69400001 -0.06205748 3.3136701e-39 340 291
0.025553079 0.69400001 -0.06205748 3.2214745e-39 341 291
0.026769891 0.69400001 -0.06205748 3.2207556e-39 342 291
0.027986705 0.69400001 -0.06205748 3.2207556e-39 343 291
0.029287677 0.69599998 -0.062236317 3.1285572e-39 344 291
0.030507999 0.69599998 -0.062236317 3.0363601e-39 345 291
0.031728316 0.69599998 -0.062236317 2.7608466e-39 346 291
0.032948639 0.69599998 -0.062236317 2.853401e-39 347 291
0.034218054 0.69700003 -0.062325738 3.0367105e-39 348 291
0.035440128 0.69700003 -0.062325738 3.0367105e-39 349 291
0.036662199 0.69700003 -0.062325738 3.4047741e-39 350 291
0.037938625 0.69800001 -0.062415157 3.4969697e-39 351 291
0.039162453 0.69800001 -0.062415157 3.9561556e-39 352 291
0.040502001 0.69999999 -0.062593997 3.9561556e-39 353 291
0.041729331 0.69999999 -0.062593997 4.1401868e-39 354 291
0.042956665 0.69999999 -0.062593997 4.2323838e-39 355 291
0.044247117 0.70099998 -0.062683418 4.142342e-39 356 291
0.04560595 0.70300001 -0.062862262 4.2345376e-39 357 291
0.046905171 0.704 -0.062951677 4.5100427e-39 358 291
0.048276275 0.70599997 -0.063130513 4.602597e-39 359 291
0.04951413 0.70599997 -0.063130513 4.419296e-39 360 291
0.050823875 0.70700002 -0.063219935 4.327099e-39 361 291
0.052137118 0.708 -0.063309364 3.3140204e-39 362 291
0.053529263 0.70999998 -0.063488193 8.7539213e-39 363 291
-0.017140586 0.75199997 -0.068562344 1.4109544e-38 307 292
-0.01578 0.75 -0.068379998 1.5214094e-38 308 292
-0.014445714 0.74900001 -0.068288825 1.4015909e-38 309 292
-0.013132467 0.74900001 -0.068288825 1.2078719e-38 310 292
-0.011203799 0.70999998 -0.064733058 1.0880176e-38 311 292
-0.0099589331 0.70999998 -0.064733058 1.1886769e-38 312 292
-0.0087140659 0.70999998 -0.064733058 1.0319802e-38 313 292
-0.0074481601 0.708 -0.06455072 1.0129287e-38 314 292
-0.0062067998 0.708 -0.06455072 8.2857349e-39 315 292
-0.0049584266 0.70700002 -0.064459547 7.5478125e-39 316 292
-0.0037135598 0.70599997 -0.064368367 7.0868358e-39 317 292
-0.0024757064 0.70599997 -0.064368367 6.5340179e-39 318 292
-0.0012343467 0.704 -0.064186029 6.2570709e-39 319 292
0 0.70300001 -0.064094849 5.5213079e-39 320 292
0.0012290865 0.70099998 -0.063912503 5.3369153e-39 321 292
0.0024546667 0.69999999 -0.063821331 5.0603326e-39 322 292
0.0036819996 0.69999999 -0.063821331 4.968137e-39 323 292
0.0048953067 0.69800001 -0.063638985 4.5082476e-39 324 292
0.006119133 0.69800001 -0.063638985 4.5082476e-39 325 292
0.00733244 0.69700003 -0.06354782 4.5078945e-39 326 292
0.0085545136 0.69700003 -0.06354782 4.3238634e-39 327 292
0.0097765867 0.69700003 -0.06354782 4.2320307e-39 328 292
0.010982879 0.69599998 -0.063456632 4.2320307e-39 329 292
0.0122032 0.69599998 -0.063456632 3.7732091e-39 330 292
0.013384946 0.69400001 -0.063274294 3.6810135e-39 331 292
0.01460176 0.69400001 -0.063274294 3.5888151e-39 332 292
0.015818574 0.69400001 -0.063274294 3.6810107e-39 333 292
0.017035386 0.69400001 -0.063274294 3.8643257e-39 334 292
0.0182522 0.69400001 -0.063274294 3.8643257e-39 335 292
0.019469013 0.69400001 -0.063274294 3.5888179e-39 336 292
0.020685827 0.69400001 -0.063274294 3.5888179e-39 337 292
0.021902639 0.69400001 -0.063274294 3.6810135e-39 338 292
0.023119451 0.69400001 -0.063274294 3.6810135e-39 339 292
0.024336265 0.69400001 -0.063274294 3.4973383e-39 340 292
0.025626717 0.69599998 -0.063456632 3.3133072e-39 341 292
0.026847038 0.69599998 -0.063456632 3.4966194e-39 342 292
0.028067358 0.69599998 -0.063456632 3.4044238e-39 343 292
0.029287677 0.69599998 -0.063456632 3.5870144e-39 344 292
0.030507999 0.69599998 -0.063456632 3.5870144e-39 345 292
0.031728316 0.69599998 -0.063456632 3.3125743e-39 346 292
0.032948639 0.69599998 -0.063456632 3.3125743e-39 347 292
0.034218054 0.69700003 -0.06354782 3.6799163e-39 348 292
0.035440128 0.69700003 -0.06354782 3.5877192e-39 349 292
0.0367148 0.69800001 -0.063638985 3.6802792e-39 350 292
0.037938625 0.69800001 -0.063638985 3.7728336e-39 351 292
0.039274666 0.69999999 -0.063821331 4.140184e-39 352 292
0.040502001 0.69999999 -0.063821331 3.9561528e-39 353 292
0.041729331 0.69999999 -0.063821331 4.140184e-39 354 292
0.043018032 0.70099998 -0.063912503 4.3249354e-39 355 292
0.04437336 0.70300001 -0.064094849 4.2345348e-39 356 292
0.045670826 0.704 -0.064186029 4.3267304e-39 357 292
0.047038425 0.70599997 -0.064368367 4.602597e-39 358 292
0.048276275 0.70599997 -0.064368367 4.602597e-39 359 292
0.049654398 0.708 -0.06455072 4.4214498e-39 360 292
0.050895758 0.708 -0.06455072 4.4214498e-39 361 292
0.052137118 0.708 -0.06455072 5.5252708e-39 362 292
-0.01578 0.75 -0.069694996 1.677998e-38 308 293
-0.014445714 0.74900001 -0.069602072 1.5027903e-38 309 293
-0.013132467 0.74900001 -0.069602072 1.2355306e-38 310 293
-0.01181922 0.74900001 -0.069602072 1.0511754e-38 311 293
-0.0099729598 0.71100003 -0.066070862 1.0783308e-38 312 293
-0.0087263398 0.71100003 -0.066070862 1.0507082e-38 313 293
-0.0074691991 0.70999998 -0.065977924 1.0866506e-38 314 293
-0.0062067998 0.708 -0.065792084 8.7460054e-39 315 293
-0.0049584266 0.70700002 -0.065699153 7.7340086e-39 316 293
-0.0037188199 0.70700002 -0.065699153 7.0886392e-39 317 293
-0.0024757064 0.70599997 -0.065606222 6.4436328e-39 318 293
-0.0012378532 0.70599997 -0.065606222 5.9830148e-39 319 293
0 0.704 -0.065420374 5.6149483e-39 320 293
0.0012325933 0.70300001 -0.065327443 5.3383614e-39 321 293
0.0024581731 0.70099998 -0.065141588 4.9703048e-39 322 293
0.0036819996 0.69999999 -0.065048665 4.8781077e-39 323 293
0.0048953067 0.69800001 -0.06486281 4.6015222e-39 324 293
0.006119133 0.69800001 -0.06486281 4.5093266e-39 325 293
0.00733244 0.69700003 -0.064769886 4.4167751e-39 326 293
0.0085545136 0.69700003 -0.064769886 4.4167751e-39 327 293
0.0097765867 0.69700003 -0.064769886 4.324585e-39 328 293
0.010982879 0.69599998 -0.064676955 4.2320307e-39 329 293
0.0122032 0.69599998 -0.064676955 3.7728532e-39 330 293
0.013423519 0.69599998 -0.064676955 3.6806576e-39 331 293
0.014643839 0.69599998 -0.064676955 3.6810135e-39 332 293
0.015864158 0.69599998 -0.064676955 3.5888179e-39 333 293
0.017084479 0.69599998 -0.064676955 3.5888179e-39 334 293
0.018304799 0.69599998 -0.064676955 3.4962635e-39 335 293
0.019469013 0.69400001 -0.064491108 3.5888179e-39 336 293
0.020685827 0.69400001 -0.064491108 3.5888179e-39 337 293
0.021902639 0.69400001 -0.064491108 3.8643229e-39 338 293
0.023119451 0.69400001 -0.064491108 3.7721273e-39 339 293
0.024336265 0.69400001 -0.064491108 3.7721273e-39 340 293
0.025626717 0.69599998 -0.064676955 3.6799317e-39 341 293
0.026847038 0.69599998 -0.064676955 3.6799289e-39 342 293
0.028067358 0.69599998 -0.064676955 3.4958978e-39 343 293
0.029287677 0.69599998 -0.064676955 3.67921e-39 344 293
0.030551834 0.69700003 -0.064769886 3.7717644e-39 345 293
0.03177391 0.69700003 -0.064769886 3.4969725e-39 346 293
0.03299598 0.69700003 -0.064769886 3.4969725e-39 347 293
0.034267146 0.69800001 -0.06486281 3.680282e-39 348 293
0.035490975 0.69800001 -0.06486281 3.680282e-39 349 293
0.036819998 0.69999999 -0.065048665 3.8646733e-39 350 293
0.038047329 0.69999999 -0.065048665 3.9572276e-39 351 293
0.039274666 0.69999999 -0.065048665 3.9572276e-39 352 293
0.040502001 0.69999999 -0.065048665 3.9572276e-39 353 293
0.041788943 0.70099998 -0.065141588 4.3242123e-39 354 293
0.043018032 0.70099998 -0.065141588 4.5082448e-39 355 293
0.04437336 0.70300001 -0.065327443 4.3267304e-39 356 293
0.04580057 0.70599997 -0.065606222 4.418926e-39 357 293
0.047105055 0.70700002 -0.065699153 4.6955129e-39 358 293
0.048344657 0.70700002 -0.065699153 4.7877086e-39 359 293
0.049654398 0.708 -0.065792084 4.2352565e-39 360 293
0.051039528 0.70999998 -0.065977924 5.2494098e-39 361 293
-0.014465 0.75 -0.071010001 1.4660923e-38 309 294
-0.01315 0.75 -0.071010001 1.2080517e-38 310 294
-0.011866559 0.75199997 -0.071199358 1.0697583e-38 311 294
-0.010548052 0.75199997 -0.071199358 1.0784741e-38 312 294
-0.0087263398 0.71100003 -0.067317478 1.0415957e-38 313 294
-0.0074797203 0.71100003 -0.067317478 1.1236364e-38 314 294
-0.0062067998 0.708 -0.067033432 9.3002554e-39 315 294
-0.0049654399 0.708 -0.067033432 8.9282302e-39 316 294
-0.0037188199 0.70700002 -0.066938758 8.0984696e-39 317 294
-0.0024792133 0.70700002 -0.066938758 7.270504e-39 318 294
-0.0012378532 0.70599997 -0.066844068 6.9017214e-39 319 294
0 0.704 -0.066654719 6.1663116e-39 320 294
0.0012325933 0.70300001 -0.066560037 5.9815602e-39 321 294
0.0024581731 0.70099998 -0.066370681 5.6135036e-39 322 294
0.0036872597 0.70099998 -0.066370681 5.5213079e-39 323 294
0.0049093333 0.69999999 -0.066275999 5.3365593e-39 324 294
0.0061366665 0.69999999 -0.066275999 5.1525282e-39 325 294
0.0073429602 0.69800001 -0.066086642 5.0599795e-39 326 294
0.0085667865 0.69800001 -0.066086642 4.8755882e-39 327 294
0.0097906133 0.69800001 -0.066086642 4.8752379e-39 328 294
0.01099866 0.69700003 -0.06599196 4.6904879e-39 329 294
0.012220734 0.69700003 -0.06599196 4.3238634e-39 330 294
0.013442807 0.69700003 -0.06599196 4.2316663e-39 331 294
0.01466488 0.69700003 -0.06599196 3.9557997e-39 332 294
0.015864158 0.69599998 -0.065897278 3.9557997e-39 333 294
0.017084479 0.69599998 -0.065897278 3.5888151e-39 334 294
0.018304799 0.69599998 -0.065897278 3.6810107e-39 335 294
0.019525118 0.69599998 -0.065897278 3.7721273e-39 336 294
0.020745439 0.69599998 -0.065897278 3.8643229e-39 337 294
0.021965759 0.69599998 -0.065897278 3.8646789e-39 338 294
0.023186078 0.69599998 -0.065897278 3.7721245e-39 339 294
0.0244064 0.69599998 -0.065897278 3.7724804e-39 340 294
0.025626717 0.69599998 -0.065897278 3.7724804e-39 341 294
0.026847038 0.69599998 -0.065897278 4.2302188e-39 342 294
0.028107686 0.69700003 -0.06599196 4.3224144e-39 343 294
0.02932976 0.69700003 -0.06599196 4.0476226e-39 344 294
0.030551834 0.69700003 -0.06599196 4.1398182e-39 345 294
0.03177391 0.69700003 -0.06599196 4.1398182e-39 346 294
0.033043321 0.69800001 -0.066086642 4.1398182e-39 347 294
0.034267146 0.69800001 -0.066086642 4.3234864e-39 348 294
0.035490975 0.69800001 -0.066086642 4.3234864e-39 349 294
0.036819998 0.69999999 -0.066275999 4.1405371e-39 350 294
0.038047329 0.69999999 -0.066275999 4.2327327e-39 351 294
0.039274666 0.69999999 -0.066275999 4.4153317e-39 352 294
0.040559858 0.70099998 -0.066370681 4.5075273e-39 353 294
0.041788943 0.70099998 -0.066370681 4.3249354e-39 354 294
0.043140765 0.70300001 -0.066560037 4.5093266e-39 355 294
0.044436477 0.704 -0.066654719 4.6951458e-39 356 294
0.04580057 0.70599997 -0.066844068 4.971374e-39 357 294
0.047105055 0.70700002 -0.066938758 5.0635696e-39 358 294
0.048344657 0.70700002 -0.066938758 5.2479608e-39 359 294
0.049794663 0.70999998 -0.067222796 4.4200008e-39 360 294
0.051039528 0.70999998 -0.067222796 6.3561091e-39 361 294
-0.0074797203 0.71100003 -0.068564095 1.1053414e-38 314 295
-0.0062243328 0.70999998 -0.068467662 9.7626768e-39 315 295
-0.0049654399 0.708 -0.068274796 9.5735996e-39 316 295
-0.0037188199 0.70700002 -0.068178371 8.743839e-39 317 295
-0.0024792133 0.70700002 -0.068178371 7.5492488e-39 318 295
-0.0012378532 0.70599997 -0.06808193 6.9038794e-39 319 295
0 0.704 -0.067889065 6.3517875e-39 320 295
0.0012343467 0.704 -0.067889065 5.9833651e-39 321 295
0.0024651866 0.70300001 -0.067792632 5.7986193e-39 322 295
0.0036872597 0.70099998 -0.067599766 5.6138693e-39 323 295
0.0049093333 0.69999999 -0.067503333 5.5209576e-39 324 295
0.0061366665 0.69999999 -0.067503333 5.428762e-39 325 295
0.0073429602 0.69800001 -0.06731046 5.4276858e-39 326 295
0.0085667865 0.69800001 -0.06731046 5.3354901e-39 327 295
0.0097906133 0.69800001 -0.06731046 4.9681524e-39 328 295
0.01101444 0.69800001 -0.06731046 4.7841212e-39 329 295
0.012238266 0.69800001 -0.06731046 4.324585e-39 330 295
0.013442807 0.69700003 -0.067214034 4.2320307e-39 331 295
0.01466488 0.69700003 -0.067214034 3.9565214e-39 332 295
0.015886955 0.69700003 -0.067214034 3.8643257e-39 333 295
0.017109027 0.69700003 -0.067214034 3.6810107e-39 334 295
0.018331099 0.69700003 -0.067214034 3.5888151e-39 335 295
0.019525118 0.69599998 -0.067117594 3.5888151e-39 336 295
0.020745439 0.69599998 -0.067117594 3.6810107e-39 337 295
0.021965759 0.69599998 -0.067117594 3.6810107e-39 338 295
0.023186078 0.69599998 -0.067117594 3.6810107e-39 339 295
0.0244064 0.69599998 -0.067117594 3.9561528e-39 340 295
0.025626717 0.69599998 -0.067117594 3.9561528e-39 341 295
0.026885614 0.69700003 -0.067214034 3.9561528e-39 342 295
0.028107686 0.69700003 -0.067214034 4.140184e-39 343 295
0.02932976 0.69700003 -0.067214034 4.1401868e-39 344 295
0.030551834 0.69700003 -0.067214034 4.1401868e-39 345 295
0.031819493 0.69800001 -0.06731046 4.2323838e-39 346 295
0.033043321 0.69800001 -0.06731046 4.2323838e-39 347 295
0.034267146 0.69800001 -0.06731046 4.3242151e-39 348 295
0.035592664 0.69999999 -0.067503333 4.3242151e-39 349 295
0.036819998 0.69999999 -0.067503333 4.3242151e-39 350 295
0.038047329 0.69999999 -0.067503333 4.3242151e-39 351 295
0.039330769 0.70099998 -0.067599766 4.5997272e-39 352 295
0.040675577 0.70300001 -0.067792632 4.5997272e-39 353 295
0.041967787 0.704 -0.067889065 4.5093294e-39 354 295
0.043324865 0.70599997 -0.06808193 4.7855562e-39 355 295
0.044562716 0.70599997 -0.06808193 4.7877086e-39 356 295
0.045930319 0.708 -0.068274796 5.0642955e-39 357 295
0.047171678 0.708 -0.068274796 5.1575701e-39 358 295
0.048549797 0.70999998 -0.068467662 5.5259925e-39 359 295
0.049864799 0.71100003 -0.068564095 5.3423271e-39 360 295
-0.0078794798 0.74900001 -0.073541813 1.0136857e-38 314 296
-0.0062243328 0.70999998 -0.069712527 9.3070951e-39 315 296
-0.0049794666 0.70999998 -0.069712527 9.4857172e-39 316 296
-0.00372408 0.708 -0.069516152 8.6559551e-39 317 296
-0.0024792133 0.70700002 -0.069417976 8.1935323e-39 318 296
-0.0012378532 0.70599997 -0.069319785 7.5481628e-39 319 296
0 0.704 -0.06912341 6.8120439e-39 320 296
0.0012343467 0.704 -0.06912341 6.3514245e-39 321 296
0.0024651866 0.70300001 -0.069025226 6.2581569e-39 322 296
0.0036872597 0.70099998 -0.068828844 5.9812099e-39 323 296
0.0049093333 0.69999999 -0.068730667 5.9804938e-39 324 296
0.0061366665 0.69999999 -0.068730667 5.7961026e-39 325 296
0.0073639993 0.69999999 -0.068730667 5.7042727e-39 326 296
0.0085667865 0.69800001 -0.068534292 5.5198828e-39 327 296
0.0097906133 0.69800001 -0.068534292 5.1521807e-39 328 296
0.01101444 0.69800001 -0.068534292 5.1521807e-39 329 296
0.012238266 0.69800001 -0.068534292 4.6922857e-39 330 296
0.013462093 0.69800001 -0.068534292 4.6000901e-39 331 296
0.01468592 0.69800001 -0.068534292 4.3245822e-39 332 296
0.015886955 0.69700003 -0.068436109 4.2323866e-39 333 296
0.017109027 0.69700003 -0.068436109 3.7735622e-39 334 296
0.018331099 0.69700003 -0.068436109 3.6810079e-39 335 296
0.019553173 0.69700003 -0.068436109 3.6810079e-39 336 296
0.020775247 0.69700003 -0.068436109 3.6810079e-39 337 296
0.02199732 0.69700003 -0.068436109 3.9568717e-39 338 296
0.023186078 0.69599998 -0.068337917 3.9568717e-39 339 296
0.0244064 0.69599998 -0.068337917 3.9572276e-39 340 296
0.025663542 0.69700003 -0.068436109 3.9572276e-39 341 296
0.026885614 0.69700003 -0.068436109 4.4153317e-39 342 296
0.028107686 0.69700003 -0.068436109 4.5075273e-39 343 296
0.02932976 0.69700003 -0.068436109 4.5071756e-39 344 296
0.030595668 0.69800001 -0.068534292 4.5993712e-39 345 296
0.031819493 0.69800001 -0.068534292 4.8752351e-39 346 296
0.033043321 0.69800001 -0.068534292 4.8752351e-39 347 296
0.034365334 0.69999999 -0.068730667 4.6922759e-39 348 296
0.035592664 0.69999999 -0.068730667 4.6922759e-39 349 296
0.036819998 0.69999999 -0.068730667 4.6922759e-39 350 296
0.038101684 0.70099998 -0.068828844 4.6922759e-39 351 296
0.039499093 0.704 -0.06912341 4.7841156e-39 352 296
0.040733438 0.704 -0.06912341 4.7841156e-39 353 296
0.042087011 0.70599997 -0.069319785 4.7848345e-39 354 296
0.043324865 0.70599997 -0.069319785 5.153617e-39 355 296
0.044562716 0.70599997 -0.069319785 4.9724558e-39 356 296
0.045930319 0.708 -0.069516152 5.3408795e-39 357 296
0.047304932 0.70999998 -0.069712527 5.6178252e-39 358 296
0.048549797 0.70999998 -0.069712527 6.1706402e-39 359 296
0.049864799 0.71100003 -0.069810718 6.4493977e-39 360 296
-0.0065486995 0.74699998 -0.074655175 8.573137e-39 315 297
-0.0049794666 0.70999998 -0.070957392 9.1194612e-39 316 297
-0.00372408 0.708 -0.070757516 8.4740918e-39 317 297
-0.00248272 0.708 -0.070757516 8.562319e-39 318 297
-0.0012396066 0.70700002 -0.070657574 7.8247539e-39 319 297
0 0.70599997 -0.070557632 7.2715802e-39 320 297
0.0012343467 0.704 -0.070357755 6.9949933e-39 321 297
0.0024651866 0.70300001 -0.070257813 6.717333e-39 322 297
0.0036872597 0.70099998 -0.070057929 6.532583e-39 323 297
0.0049163462 0.70099998 -0.070057929 6.2560017e-39 324 297
0.0061366665 0.69999999 -0.069957994 6.1638061e-39 325 297
0.0073639993 0.69999999 -0.069957994 5.7957466e-39 326 297
0.0085913334 0.69999999 -0.069957994 5.7957466e-39 327 297
0.0098186666 0.69999999 -0.069957994 5.5198828e-39 328 297
0.011045999 0.69999999 -0.069957994 5.5198828e-39 329 297
0.012238266 0.69800001 -0.069758117 5.1521807e-39 330 297
0.013462093 0.69800001 -0.069758117 5.0596263e-39 331 297
0.01468592 0.69800001 -0.069758117 4.6004432e-39 332 297
0.015909746 0.69800001 -0.069758117 4.6004432e-39 333 297
0.017109027 0.69700003 -0.069658175 4.3249325e-39 334 297
0.018331099 0.69700003 -0.069658175 4.3249325e-39 335 297
0.019553173 0.69700003 -0.069658175 4.2327355e-39 336 297
0.020775247 0.69700003 -0.069658175 4.1405399e-39 337 297
0.02199732 0.69700003 -0.069658175 4.3242151e-39 338 297
0.023186078 0.69599998 -0.069558233 4.3242151e-39 339 297
0.0244064 0.69599998 -0.069558233 4.4153317e-39 340 297
0.025663542 0.69700003 -0.069658175 4.4153317e-39 341 297
0.026885614 0.69700003 -0.069658175 4.5068085e-39 342 297
0.028148014 0.69800001 -0.069758117 4.6908396e-39 343 297
0.029371841 0.69800001 -0.069758117 4.7830422e-39 344 297
0.030595668 0.69800001 -0.069758117 4.8752379e-39 345 297
0.031819493 0.69800001 -0.069758117 4.9674335e-39 346 297
0.033137999 0.69999999 -0.069957994 4.9674335e-39 347 297
0.034414422 0.70099998 -0.070057929 4.9677866e-39 348 297
0.035643511 0.70099998 -0.070057929 4.9677866e-39 349 297
0.036872596 0.70099998 -0.070057929 4.9685027e-39 350 297
0.038210396 0.70300001 -0.070257813 4.9685027e-39 351 297
0.039499093 0.704 -0.070357755 4.7851876e-39 352 297
0.040849157 0.70599997 -0.070557632 4.7851876e-39 353 297
0.042087011 0.70599997 -0.070557632 4.9699376e-39 354 297
0.043324865 0.70599997 -0.070557632 5.3383614e-39 355 297
0.044562716 0.70599997 -0.070557632 5.3401621e-39 356 297
0.045930319 0.708 -0.070757516 5.7085859e-39 357 297
0.047304932 0.70999998 -0.070957392 5.8937016e-39 358 297
0.048549797 0.70999998 -0.070957392 6.631268e-39 359 297
-0.0049794666 0.70999998 -0.072202265 8.9354357e-39 316 298
-0.00372408 0.708 -0.071998879 8.4744576e-39 317 298
-0.00248272 0.708 -0.071998879 8.6559593e-39 318 298
-0.00124136 0.708 -0.071998879 7.9183929e-39 319 298
0 0.70700002 -0.071897186 7.4566973e-39 320 298
0.0012378532 0.70599997 -0.071795486 7.0875546e-39 321 298
0.0024686933 0.704 -0.071592107 6.9024459e-39 322 298
0.0036977797 0.70300001 -0.071490414 6.5336648e-39 323 298
0.0049163462 0.70099998 -0.071287021 6.3481973e-39 324 298
0.0061366665 0.69999999 -0.071185328 6.1638061e-39 325 298
0.0073639993 0.69999999 -0.071185328 5.8879423e-39 326 298
0.0085913334 0.69999999 -0.071185328 5.7957466e-39 327 298
0.0098186666 0.69999999 -0.071185328 5.7042727e-39 328 298
0.011045999 0.69999999 -0.071185328 5.7042727e-39 329 298
0.012273333 0.69999999 -0.071185328 5.336209e-39 330 298
0.013500666 0.69999999 -0.071185328 5.1521779e-39 331 298
0.01468592 0.69800001 -0.07098195 4.6018782e-39 332 298
0.015909746 0.69800001 -0.07098195 4.6018782e-39 333 298
0.017133573 0.69800001 -0.07098195 4.6018754e-39 334 298
0.0183574 0.69800001 -0.07098195 4.5096797e-39 335 298
0.019581227 0.69800001 -0.07098195 4.4171282e-39 336 298
0.020805053 0.69800001 -0.07098195 4.4171282e-39 337 298
0.02202888 0.69800001 -0.07098195 4.417131e-39 338 298
0.023219392 0.69700003 -0.070880257 4.3249354e-39 339 298
0.024441468 0.69700003 -0.070880257 4.5997272e-39 340 298
0.025700359 0.69800001 -0.07098195 4.5997272e-39 341 298
0.026924185 0.69800001 -0.07098195 4.5997244e-39 342 298
0.028148014 0.69800001 -0.07098195 4.5997244e-39 343 298
0.029371841 0.69800001 -0.07098195 4.8752323e-39 344 298
0.030683333 0.69999999 -0.071185328 4.8752323e-39 345 298
0.031910665 0.69999999 -0.071185328 4.9674307e-39 346 298
0.033137999 0.69999999 -0.071185328 4.9674307e-39 347 298
0.034414422 0.70099998 -0.071287021 4.9685055e-39 348 298
0.035745207 0.70300001 -0.071490414 4.9685055e-39 349 298
0.036977798 0.70300001 -0.071490414 4.8773861e-39 350 298
0.038264744 0.704 -0.071592107 4.8773861e-39 351 298
0.039611302 0.70599997 -0.071795486 5.0606983e-39 352 298
0.040907022 0.70700002 -0.071897186 5.1528939e-39 353 298
0.042206239 0.708 -0.071998879 5.2458098e-39 354 298
0.043447599 0.708 -0.071998879 5.4305598e-39 355 298
0.044688959 0.708 -0.071998879 5.3405292e-39 356 298
0.046124939 0.71100003 -0.072303966 5.6171161e-39 357 298
0.047371563 0.71100003 -0.072303966 5.8933527e-39 358 298
0.048960082 0.71600002 -0.072812423 6.9075046e-39 359 298
-0.0039134403 0.74400002 -0.076964319 8.3851332e-39 317 299
-0.0026019465 0.74199998 -0.076757424 8.565193e-39 318 299
-0.00124136 0.708 -0.073240235 8.0120193e-39 319 299
