# .PCD v.7 - Point Cloud Data file format
FIELDS x y z rgb imX imY
SIZE 4 4 4 4 4 4
TYPE F F F F F F
COUNT 1 1 1 1 1 1
WIDTH 832
HEIGHT 1
VIEWPOINT 0 0 0 1 0 0 0
POINTS 832
DATA ascii
-0.018964052 0.676 -0.0082967728 1.096872e-38 304 247
-0.0178314 0.67799997 -0.0083213197 1.1798482e-38 305 247
-0.016667187 0.67900002 -0.0083335936 1.290305e-38 306 247
-0.015499466 0.68000001 -0.0083458666 1.2073289e-38 307 247
-0.01434928 0.68199998 -0.0083704125 9.0304704e-39 308 247
-0.013153506 0.68199998 -0.0083704125 9.2145015e-39 309 247
-0.011975267 0.68300003 -0.0083826864 9.4928905e-39 310 247
-0.01079352 0.68400002 -0.0083949603 9.7691186e-39 311 247
-0.0096222926 0.68599999 -0.0084195063 1.0046064e-38 312 247
-0.0084195063 0.68599999 -0.0084195063 1.0414488e-38 313 247
-0.0072167199 0.68599999 -0.0084195063 1.0966929e-38 314 247
-0.0060226996 0.68699998 -0.0084317802 1.1427907e-38 315 247
-0.0048251734 0.68800002 -0.0084440531 1.2530659e-38 316 247
-0.0036293997 0.69 -0.0084686 1.2991636e-38 317 247
-0.0024231065 0.69099998 -0.008480873 1.3268943e-38 318 247
-0.00121506 0.69300002 -0.0085054198 1.3453693e-38 319 247
0 0.69300002 -0.0085054198 1.39143e-38 320 247
0.0012168133 0.69400001 -0.0085176928 1.4190526e-38 321 247
0.0024406398 0.69599998 -0.0085422397 1.3824621e-38 322 247
0.0036609597 0.69599998 -0.0085422397 1.3824621e-38 323 247
0.0048882933 0.69700003 -0.0085545136 1.4099057e-38 324 247
0.0061103669 0.69700003 -0.0085545136 1.382247e-38 325 247
0.00733244 0.69700003 -0.0085545136 1.3639157e-38 326 247
0.0085545136 0.69700003 -0.0085545136 1.3731353e-38 327 247
0.0097906133 0.69800001 -0.0085667865 1.3733141e-38 328 247
0.01101444 0.69800001 -0.0085667865 1.3825337e-38 329 247
0.012238266 0.69800001 -0.0085667865 1.391752e-38 330 247
0.013519952 0.70099998 -0.0086036054 1.391752e-38 331 247
0.014812159 0.704 -0.0086404262 1.3917517e-38 332 247
0.016092092 0.70599997 -0.0086649731 1.3825321e-38 333 247
0.017379038 0.708 -0.008689519 1.3642728e-38 334 247
0.0186204 0.708 -0.008689519 1.3642728e-38 335 247
0.019917866 0.70999998 -0.0087140659 1.3734926e-38 336 247
0.021103119 0.708 -0.008689519 1.3181754e-38 337 247
0.022344479 0.708 -0.008689519 1.2168709e-38 338 247
0.023585839 0.708 -0.008689519 1.3275417e-38 339 247
-0.039723519 0.708 -0.0099308798 1.4930946e-38 288 248
-0.038427804 0.70700002 -0.0099168532 1.5668512e-38 289 248
-0.037030395 0.704 -0.0098747732 1.5668865e-38 290 248
-0.035745207 0.70300001 -0.0098607466 1.5576668e-38 291 248
-0.034414422 0.70099998 -0.0098326923 1.5301155e-38 292 248
-0.033043321 0.69800001 -0.0097906133 1.5208959e-38 293 248
-0.031819493 0.69800001 -0.0097906133 1.5116766e-38 294 248
-0.030551834 0.69700003 -0.0097765867 1.4655788e-38 295 248
-0.02932976 0.69700003 -0.0097765867 1.3549811e-38 296 248
-0.028107686 0.69700003 -0.0097765867 1.2259072e-38 297 248
-0.026037 0.67500001 -0.0094679995 1.1244212e-38 298 248
-0.0248535 0.67500001 -0.0094679995 1.0506647e-38 299 248
-0.023669999 0.67500001 -0.0094679995 9.5868629e-39 300 248
-0.022486499 0.67500001 -0.0094679995 9.5868629e-39 301 248
-0.021303 0.67500001 -0.0094679995 9.401764e-39 302 248
-0.020119499 0.67500001 -0.0094679995 9.5861567e-39 303 248
-0.018964052 0.676 -0.0094820261 1.0232976e-38 304 248
-0.0178314 0.67799997 -0.0095100794 1.0693955e-38 305 248
-0.016667187 0.67900002 -0.009524107 1.0783276e-38 306 248
-0.015499466 0.68000001 -0.0095381327 1.0137907e-38 307 248
-0.01434928 0.68199998 -0.009566186 9.4910898e-39 308 248
-0.013153506 0.68199998 -0.009566186 9.4910898e-39 309 248
-0.011975267 0.68300003 -0.0095802136 9.675837e-39 310 248
-0.01079352 0.68400002 -0.0095942402 9.9520637e-39 311 248
-0.0095942402 0.68400002 -0.0095942402 1.0229361e-38 312 248
-0.0084195063 0.68599999 -0.0096222926 1.0505588e-38 313 248
-0.0072167199 0.68599999 -0.0096222926 1.1240989e-38 314 248
-0.0060226996 0.68699998 -0.0096363192 1.1425739e-38 315 248
-0.0048251734 0.68800002 -0.0096503468 1.2161872e-38 316 248
-0.0036188802 0.68800002 -0.0096503468 1.262321e-38 317 248
-0.0024195998 0.69 -0.0096783992 1.3266781e-38 318 248
-0.0012115532 0.69099998 -0.0096924258 1.3819596e-38 319 248
0 0.69300002 -0.0097204801 1.3821021e-38 320 248
0.0012168133 0.69400001 -0.0097345067 1.4097609e-38 321 248
0.0024336267 0.69400001 -0.0097345067 1.3915016e-38 322 248
0.0036609597 0.69599998 -0.0097625591 1.4007211e-38 323 248
0.0048812795 0.69599998 -0.0097625591 1.382282e-38 324 248
0.0061015999 0.69599998 -0.0097625591 1.3638427e-38 325 248
0.0073219193 0.69599998 -0.0097625591 1.3638422e-38 326 248
0.0085545136 0.69700003 -0.0097765867 1.3638422e-38 327 248
0.0097765867 0.69700003 -0.0097765867 1.354946e-38 328 248
0.01099866 0.69700003 -0.0097765867 1.3825687e-38 329 248
0.012220734 0.69700003 -0.0097765867 1.3825687e-38 330 248
0.013500666 0.69999999 -0.0098186666 1.3733491e-38 331 248
0.014812159 0.704 -0.0098747732 1.4008286e-38 332 248
0.016046507 0.704 -0.0098747732 1.391609e-38 333 248
0.017354494 0.70700002 -0.0099168532 1.3732419e-38 334 248
0.018594101 0.70700002 -0.0099168532 1.3824974e-38 335 248
0.01986176 0.708 -0.0099308798 1.3917164e-38 336 248
0.021103119 0.708 -0.0099308798 1.3824968e-38 337 248
0.022344479 0.708 -0.0099308798 1.3456912e-38 338 248
0.023585839 0.708 -0.0099308798 1.2258368e-38 339 248
0.024827199 0.708 -0.0099308798 1.2910258e-38 340 248
-0.040964879 0.708 -0.01117224 1.446889e-38 287 249
-0.039723519 0.708 -0.01117224 1.4377776e-38 288 249
-0.038373452 0.70599997 -0.011140679 1.5023146e-38 289 249
-0.036977798 0.70300001 -0.01109334 1.5209325e-38 290 249
-0.035643511 0.70099998 -0.011061779 1.5209325e-38 291 249
-0.034267146 0.69800001 -0.01101444 1.5392272e-38 292 249
-0.03299598 0.69700003 -0.01099866 1.5300076e-38 293 249
-0.03177391 0.69700003 -0.01099866 1.5116766e-38 294 249
-0.030551834 0.69700003 -0.01099866 1.4378843e-38 295 249
-0.02932976 0.69700003 -0.01099866 1.3455097e-38 296 249
-0.028107686 0.69700003 -0.01099866 1.2717532e-38 297 249
-0.026037 0.67500001 -0.0106515 1.1611197e-38 298 249
-0.0248535 0.67500001 -0.0106515 1.0228262e-38 299 249
-0.023705067 0.676 -0.01066728 9.2184546e-39 300 249
-0.022486499 0.67500001 -0.0106515 9.5868783e-39 301 249
-0.021303 0.67500001 -0.0106515 9.4939821e-39 302 249
-0.020119499 0.67500001 -0.0106515 9.770569e-39 303 249
-0.018964052 0.676 -0.01066728 9.9564022e-39 304 249
-0.0178314 0.67799997 -0.010698839 1.0140793e-38 305 249
-0.016667187 0.67900002 -0.010714619 1.0045711e-38 306 249
-0.015499466 0.68000001 -0.0107304 9.6769286e-39 307 249
-0.01434928 0.68199998 -0.010761959 9.7669564e-39 308 249
-0.013153506 0.68199998 -0.010761959 9.6747608e-39 309 249
-0.011975267 0.68300003 -0.01077774 9.675837e-39 310 249
-0.01079352 0.68400002 -0.01079352 9.9520637e-39 311 249
-0.0095942402 0.68400002 -0.01079352 1.0137165e-38 312 249
-0.0084195063 0.68599999 -0.010825079 1.0505588e-38 313 249
-0.0072167199 0.68599999 -0.010825079 1.0965481e-38 314 249
-0.0060139326 0.68599999 -0.010825079 1.1149873e-38 315 249
-0.0048181596 0.68699998 -0.010840859 1.1976761e-38 316 249
-0.0036188802 0.68800002 -0.010856641 1.2345545e-38 317 249
-0.0024125867 0.68800002 -0.010856641 1.2806167e-38 318 249
-0.0012097999 0.69 -0.010888199 1.3451536e-38 319 249
0 0.69099998 -0.01090398 1.3544804e-38 320 249
0.00121506 0.69300002 -0.010935539 1.3729554e-38 321 249
0.00243012 0.69300002 -0.010935539 1.3454406e-38 322 249
0.0036504399 0.69400001 -0.01095132 1.3546603e-38 323 249
0.0048672534 0.69400001 -0.01095132 1.3454762e-38 324 249
0.0060840664 0.69400001 -0.01095132 1.3362566e-38 325 249
0.0073219193 0.69599998 -0.010982879 1.3362561e-38 326 249
0.0085422397 0.69599998 -0.010982879 1.3362561e-38 327 249
0.0097625591 0.69599998 -0.010982879 1.3181404e-38 328 249
0.010982879 0.69599998 -0.010982879 1.3365435e-38 329 249
0.0122032 0.69599998 -0.010982879 1.354911e-38 330 249
0.013462093 0.69800001 -0.01101444 1.3456914e-38 331 249
0.014791119 0.70300001 -0.01109334 1.3640227e-38 332 249
0.016046507 0.704 -0.011109119 1.3640227e-38 333 249
0.017329946 0.70599997 -0.011140679 1.3456912e-38 334 249
0.018567799 0.70599997 -0.011140679 1.3456912e-38 335 249
0.019833706 0.70700002 -0.011156459 1.364058e-38 336 249
0.021073313 0.70700002 -0.011156459 1.364058e-38 337 249
0.022312919 0.70700002 -0.011156459 1.3457615e-38 338 249
0.023585839 0.708 -0.01117224 1.2443103e-38 339 249
0.024827199 0.708 -0.01117224 1.2627539e-38 340 249
-0.043570329 0.70999998 -0.012448666 1.4285593e-38 285 250
-0.042206239 0.708 -0.0124136 1.4469595e-38 286 250
-0.040907022 0.70700002 -0.012396066 1.4561792e-38 287 250
-0.039667413 0.70700002 -0.012396066 1.4286647e-38 288 250
-0.038264744 0.704 -0.012343466 1.4655788e-38 289 250
-0.036819998 0.69999999 -0.012273333 1.4841266e-38 290 250
-0.035490975 0.69800001 -0.012238266 1.5026016e-38 291 250
-0.034218054 0.69700003 -0.012220734 1.5208959e-38 292 250
-0.032948639 0.69599998 -0.0122032 1.5116764e-38 293 250
-0.031637147 0.69400001 -0.012168133 1.5024568e-38 294 250
-0.0303765 0.69300002 -0.012150601 1.4287003e-38 295 250
-0.029161438 0.69300002 -0.012150601 1.3913917e-38 296 250
-0.027946379 0.69300002 -0.012150601 1.3361102e-38 297 250
-0.026075572 0.676 -0.011852534 1.1796667e-38 298 250
-0.024890319 0.676 -0.011852534 1.0413733e-38 299 250
-0.023705067 0.676 -0.011852534 9.1266065e-39 300 250
-0.022486499 0.67500001 -0.011835 9.5875846e-39 301 250
-0.021303 0.67500001 -0.011835 9.5865252e-39 302 250
-0.020149305 0.676 -0.011852534 9.7712752e-39 303 250
-0.018964052 0.676 -0.011852534 9.6805257e-39 304 250
-0.0178314 0.67799997 -0.011887599 9.9567525e-39 305 250
-0.016691733 0.68000001 -0.011922667 9.3084992e-39 306 250
-0.015499466 0.68000001 -0.011922667 8.847521e-39 307 250
-0.01434928 0.68199998 -0.011957732 9.4892905e-39 308 250
-0.013172794 0.68300003 -0.011975267 9.5814876e-39 309 250
-0.011975267 0.68300003 -0.011975267 9.5843602e-39 310 250
-0.01079352 0.68400002 -0.0119928 9.7687515e-39 311 250
-0.0096222926 0.68599999 -0.012027865 1.0137165e-38 312 250
-0.0084195063 0.68599999 -0.012027865 1.0321557e-38 313 250
-0.0072167199 0.68599999 -0.012027865 1.1056597e-38 314 250
-0.0060139326 0.68599999 -0.012027865 1.1333185e-38 315 250
-0.0048181596 0.68699998 -0.012045399 1.1517932e-38 316 250
-0.0036136196 0.68699998 -0.012045399 1.197891e-38 317 250
-0.0024125867 0.68800002 -0.012062933 1.2531009e-38 318 250
-0.0012062934 0.68800002 -0.012062933 1.3084182e-38 319 250
0 0.69 -0.012097999 1.3084905e-38 320 250
0.0012115532 0.69099998 -0.012115533 1.3269296e-38 321 250
0.00243012 0.69300002 -0.012150601 1.3085628e-38 322 250
0.0036451798 0.69300002 -0.012150601 1.3270018e-38 323 250
0.0048672534 0.69400001 -0.012168133 1.3270018e-38 324 250
0.0060840664 0.69400001 -0.012168133 1.3085628e-38 325 250
0.0073008798 0.69400001 -0.012168133 1.3086337e-38 326 250
0.0085176928 0.69400001 -0.012168133 1.3086337e-38 327 250
0.0097625591 0.69599998 -0.0122032 1.3271447e-38 328 250
0.01095132 0.69400001 -0.012168133 1.3363643e-38 329 250
0.012168133 0.69400001 -0.012168133 1.3547678e-38 330 250
0.013423519 0.69599998 -0.0122032 1.3363645e-38 331 250
0.014727999 0.69999999 -0.012273333 1.3363643e-38 332 250
0.015978126 0.70099998 -0.012290866 1.3363643e-38 333 250
0.017280852 0.704 -0.012343466 1.3088848e-38 334 250
0.018515198 0.704 -0.012343466 1.3088848e-38 335 250
0.019805651 0.70599997 -0.012378532 1.3272513e-38 336 250
0.021073313 0.70700002 -0.012396066 1.3272513e-38 337 250
0.022312919 0.70700002 -0.012396066 1.3364346e-38 338 250
0.023552528 0.70700002 -0.012396066 1.2995205e-38 339 250
0.024792133 0.70700002 -0.012396066 1.2168356e-38 340 250
0.026252659 0.713 -0.012501267 1.419666e-38 341 250
-0.044815198 0.70999998 -0.013693533 1.382604e-38 284 251
-0.043447599 0.708 -0.013654959 1.4102987e-38 285 251
-0.042146627 0.70700002 -0.013635674 1.4563946e-38 286 251
-0.040849157 0.70599997 -0.013616386 1.4563946e-38 287 251
-0.039611302 0.70599997 -0.013616386 1.4472466e-38 288 251
-0.038101684 0.70099998 -0.013519952 1.4656857e-38 289 251
-0.036819998 0.69999999 -0.013500666 1.5024931e-38 290 251
-0.035490975 0.69800001 -0.013462093 1.5209681e-38 291 251
-0.034218054 0.69700003 -0.013442807 1.5300079e-38 292 251
-0.032853961 0.69400001 -0.013384946 1.4931296e-38 293 251
-0.031637147 0.69400001 -0.013384946 1.4838382e-38 294 251
-0.0303765 0.69300002 -0.01336566 1.465399e-38 295 251
-0.029077278 0.69099998 -0.013327086 1.4651485e-38 296 251
-0.027865725 0.69099998 -0.013327086 1.3545497e-38 297 251
-0.026075572 0.676 -0.013037786 1.1613721e-38 298 251
-0.024890319 0.676 -0.013037786 1.0783601e-38 299 251
-0.023705067 0.676 -0.013037786 9.8630953e-39 300 251
-0.022519812 0.676 -0.013037786 9.8630953e-39 301 251
-0.021334561 0.676 -0.013037786 9.679074e-39 302 251
-0.020149305 0.676 -0.013037786 9.679074e-39 303 251
-0.018964052 0.676 -0.013037786 9.4961275e-39 304 251
-0.017857701 0.67900002 -0.013095647 9.1277051e-39 305 251
-0.016740825 0.68199998 -0.013153506 9.3981753e-39 306 251
-0.015545053 0.68199998 -0.013153506 8.936837e-39 307 251
-0.014370319 0.68300003 -0.013172794 9.3048965e-39 308 251
-0.013172794 0.68300003 -0.013172794 9.4896464e-39 309 251
-0.011975267 0.68300003 -0.013172794 9.4914429e-39 310 251
-0.01079352 0.68400002 -0.01319208 9.9524197e-39 311 251
-0.0095942402 0.68400002 -0.01319208 1.0137163e-38 312 251
-0.0083949603 0.68400002 -0.01319208 1.0229717e-38 313 251
-0.0072167199 0.68599999 -0.013230653 1.0872563e-38 314 251
-0.0060139326 0.68599999 -0.013230653 1.1241345e-38 315 251
-0.0048181596 0.68699998 -0.013249939 1.1425736e-38 316 251
-0.0036136196 0.68699998 -0.013249939 1.179416e-38 317 251
-0.0024125867 0.68800002 -0.013269227 1.2163301e-38 318 251
-0.0012062934 0.68800002 -0.013269227 1.2532084e-38 319 251
0 0.68800002 -0.013269227 1.2807592e-38 320 251
0.0012097999 0.69 -0.0133078 1.3084179e-38 321 251
0.0024231065 0.69099998 -0.013327086 1.3084902e-38 322 251
0.0036451798 0.69300002 -0.01336566 1.3269293e-38 323 251
0.00486024 0.69300002 -0.01336566 1.3269649e-38 324 251
0.0060753003 0.69300002 -0.01336566 1.3269649e-38 325 251
0.0073008798 0.69400001 -0.013384946 1.3086334e-38 326 251
0.0085176928 0.69400001 -0.013384946 1.3086334e-38 327 251
0.0097345067 0.69400001 -0.013384946 1.3087056e-38 328 251
0.01095132 0.69400001 -0.013384946 1.3179251e-38 329 251
0.012168133 0.69400001 -0.013384946 1.3178895e-38 330 251
0.013384946 0.69400001 -0.013384946 1.327145e-38 331 251
0.014643839 0.69599998 -0.013423519 1.3271447e-38 332 251
0.015955333 0.69999999 -0.013500666 1.3179251e-38 333 251
0.017256306 0.70300001 -0.013558527 1.32718e-38 334 251
0.018515198 0.704 -0.013577812 1.3179604e-38 335 251
0.019805651 0.70599997 -0.013616386 1.3271794e-38 336 251
0.021043506 0.70599997 -0.013616386 1.3179599e-38 337 251
0.022312919 0.70700002 -0.013635674 1.3179599e-38 338 251
0.023552528 0.70700002 -0.013635674 1.2995208e-38 339 251
0.024792133 0.70700002 -0.013635674 1.1983239e-38 340 251
0.026252659 0.713 -0.013751393 1.216799e-38 341 251
0.027502786 0.713 -0.013751393 1.4571231e-38 342 251
-0.046060063 0.70999998 -0.014938398 1.3091384e-38 283 252
-0.044815198 0.70999998 -0.014938398 1.3549083e-38 284 252
-0.043447599 0.708 -0.01489632 1.4194453e-38 285 252
-0.042146627 0.70700002 -0.01487528 1.4288798e-38 286 252
-0.040849157 0.70599997 -0.014854239 1.4473548e-38 287 252
-0.039442986 0.70300001 -0.014791119 1.465686e-38 288 252
-0.038047329 0.69999999 -0.014727999 1.465686e-38 289 252
-0.0367148 0.69800001 -0.01468592 1.4748354e-38 290 252
-0.035440128 0.69700003 -0.01466488 1.4748354e-38 291 252
-0.034168959 0.69599998 -0.014643839 1.5113542e-38 292 252
-0.032853961 0.69400001 -0.01460176 1.5113542e-38 293 252
-0.031591557 0.69300002 -0.014580719 1.4377773e-38 294 252
-0.030288832 0.69099998 -0.014538639 1.4285578e-38 295 252
-0.028951041 0.68800002 -0.014475521 1.4376343e-38 296 252
-0.027583439 0.68400002 -0.01439136 1.3177801e-38 297 252
-0.026191294 0.67900002 -0.01428616 1.152045e-38 298 252
-0.024963958 0.67799997 -0.014265119 1.0875081e-38 299 252
-0.023775198 0.67799997 -0.014265119 9.9567371e-39 300 252
-0.022586439 0.67799997 -0.014265119 9.5883133e-39 301 252
-0.021397678 0.67799997 -0.014265119 9.4957645e-39 302 252
-0.020208918 0.67799997 -0.014265119 9.4032102e-39 303 252
-0.019020159 0.67799997 -0.014265119 9.676923e-39 304 252
-0.017883999 0.68000001 -0.014307199 9.1237492e-39 305 252
-0.016740825 0.68199998 -0.01434928 8.9379188e-39 306 252
-0.015545053 0.68199998 -0.01434928 8.8457232e-39 307 252
-0.014370319 0.68300003 -0.014370319 9.1215842e-39 308 252
-0.013172794 0.68300003 -0.014370319 9.3985298e-39 309 252
-0.011975267 0.68300003 -0.014370319 9.4925177e-39 310 252
-0.01079352 0.68400002 -0.01439136 9.7691046e-39 311 252
-0.0095942402 0.68400002 -0.01439136 1.0320831e-38 312 252
-0.0083949603 0.68400002 -0.01439136 1.0505222e-38 313 252
-0.0072167199 0.68599999 -0.01443344 1.0689972e-38 314 252
-0.0060139326 0.68599999 -0.01443344 1.0874005e-38 315 252
-0.0048111463 0.68599999 -0.01443344 1.1149875e-38 316 252
-0.0036136196 0.68699998 -0.014454478 1.1518298e-38 317 252
-0.0024125867 0.68800002 -0.014475521 1.1703412e-38 318 252
-0.0012062934 0.68800002 -0.014475521 1.1888162e-38 319 252
0 0.68800002 -0.014475521 1.2438462e-38 320 252
0.0012062934 0.68800002 -0.014475521 1.2806886e-38 321 252
0.0024195998 0.69 -0.014517599 1.2533532e-38 322 252
0.0036346598 0.69099998 -0.014538639 1.280976e-38 323 252
0.00486024 0.69300002 -0.014580719 1.2718993e-38 324 252
0.0060753003 0.69300002 -0.014580719 1.2718993e-38 325 252
0.0072903596 0.69300002 -0.014580719 1.2994501e-38 326 252
0.0085176928 0.69400001 -0.01460176 1.2994501e-38 327 252
0.0097345067 0.69400001 -0.01460176 1.3087056e-38 328 252
0.01095132 0.69400001 -0.01460176 1.3087056e-38 329 252
0.012168133 0.69400001 -0.01460176 1.3087419e-38 330 252
0.013384946 0.69400001 -0.01460176 1.2903387e-38 331 252
0.014643839 0.69599998 -0.014643839 1.2903387e-38 332 252
0.015909746 0.69800001 -0.01468592 1.2903387e-38 333 252
0.017182667 0.69999999 -0.014727999 1.2811911e-38 334 252
0.018515198 0.704 -0.014812159 1.2719715e-38 335 252
0.019749546 0.704 -0.014812159 1.2903741e-38 336 252
0.021043506 0.70599997 -0.014854239 1.2903741e-38 337 252
0.022281358 0.70599997 -0.014854239 1.2811545e-38 338 252
0.023552528 0.70700002 -0.01487528 1.2903741e-38 339 252
0.024827199 0.708 -0.01489632 1.244313e-38 340 252
0.026179021 0.71100003 -0.014959441 1.1428976e-38 341 252
0.027425639 0.71100003 -0.014959441 1.3737502e-38 342 252
-0.047371563 0.71100003 -0.01620606 1.3274334e-38 282 253
-0.046060063 0.70999998 -0.016183265 1.272116e-38 283 253
-0.044688959 0.708 -0.01613768 1.3731311e-38 284 253
-0.043447599 0.708 -0.01613768 1.437668e-38 285 253
-0.042146627 0.70700002 -0.016114887 1.4011855e-38 286 253
-0.040733438 0.704 -0.016046507 1.4288801e-38 287 253
-0.039330769 0.70099998 -0.015978126 1.4932016e-38 288 253
-0.038047329 0.69999999 -0.015955333 1.4839819e-38 289 253
-0.0367148 0.69800001 -0.015909746 1.4193734e-38 290 253
-0.035389278 0.69599998 -0.015864158 1.4008984e-38 291 253
-0.034168959 0.69599998 -0.015864158 1.437633e-38 292 253
-0.032853961 0.69400001 -0.015818574 1.483695e-38 293 253
-0.031591557 0.69300002 -0.015795778 1.4561089e-38 294 253
-0.030288832 0.69099998 -0.015750192 1.3823523e-38 295 253
-0.028951041 0.68800002 -0.015681813 1.3270721e-38 296 253
-0.027583439 0.68400002 -0.01559064 1.2625352e-38 297 253
-0.02638416 0.68400002 -0.01559064 1.1520453e-38 298 253
-0.025037598 0.68000001 -0.015499466 1.0229714e-38 299 253
-0.023845334 0.68000001 -0.015499466 9.0365786e-39 300 253
-0.022653066 0.68000001 -0.015499466 9.2209699e-39 301 253
-0.0214608 0.68000001 -0.015499466 9.4032102e-39 302 253
-0.020268533 0.68000001 -0.015499466 9.2188175e-39 303 253
-0.019076265 0.68000001 -0.015499466 9.674758e-39 304 253
-0.017962901 0.68300003 -0.015567848 9.3059755e-39 305 253
-0.016765373 0.68300003 -0.015567848 8.9389936e-39 306 253
-0.015567848 0.68300003 -0.015567848 8.8464392e-39 307 253
-0.014370319 0.68300003 -0.015567848 8.9389908e-39 308 253
-0.013172794 0.68300003 -0.015567848 9.1233821e-39 309 253
-0.011975267 0.68300003 -0.015567848 9.4925121e-39 310 253
-0.01079352 0.68400002 -0.01559064 9.7694577e-39 311 253
-0.0095942402 0.68400002 -0.01559064 1.0412661e-38 312 253
-0.0083949603 0.68400002 -0.01559064 1.0504856e-38 313 253
-0.0072167199 0.68599999 -0.015636226 1.0873637e-38 314 253
-0.0060139326 0.68599999 -0.015636226 1.0965835e-38 315 253
-0.0048111463 0.68599999 -0.015636226 1.1241342e-38 316 253
-0.0036136196 0.68699998 -0.015659019 1.1425734e-38 317 253
-0.0024090798 0.68699998 -0.015659019 1.1977105e-38 318 253
-0.0012045399 0.68699998 -0.015659019 1.206966e-38 319 253
0 0.68699998 -0.015659019 1.2619958e-38 320 253
0.0012062934 0.68800002 -0.015681813 1.2804708e-38 321 253
0.0024125867 0.68800002 -0.015681813 1.2439165e-38 322 253
0.0036293997 0.69 -0.015727401 1.2623558e-38 323 253
0.0048391996 0.69 -0.015727401 1.2625352e-38 324 253
0.0060577663 0.69099998 -0.015750192 1.2809743e-38 325 253
0.0072903596 0.69300002 -0.015795778 1.299521e-38 326 253
0.0085054198 0.69300002 -0.015795778 1.299521e-38 327 253
0.0097345067 0.69400001 -0.015818574 1.3087406e-38 328 253
0.01095132 0.69400001 -0.015818574 1.3087406e-38 329 253
0.012168133 0.69400001 -0.015818574 1.2903738e-38 330 253
0.013384946 0.69400001 -0.015818574 1.2811542e-38 331 253
0.014643839 0.69599998 -0.015864158 1.2901941e-38 332 253
0.015886955 0.69700003 -0.015886955 1.2901941e-38 333 253
0.017133573 0.69800001 -0.015909746 1.2626075e-38 334 253
0.018488899 0.70300001 -0.016023712 1.2810106e-38 335 253
0.019749546 0.704 -0.016046507 1.2901941e-38 336 253
0.020983893 0.704 -0.016046507 1.2994138e-38 337 253
0.022281358 0.70599997 -0.016092092 1.2811545e-38 338 253
0.023552528 0.70700002 -0.016114887 1.2903741e-38 339 253
0.024792133 0.70700002 -0.016114887 1.2536034e-38 340 253
0.026068559 0.708 -0.01613768 1.1613718e-38 341 253
0.027309919 0.708 -0.01613768 1.244783e-38 342 253
-0.048618179 0.71100003 -0.01745268 1.4937493e-38 281 254
-0.047304932 0.70999998 -0.017428132 1.3088149e-38 282 254
-0.046060063 0.70999998 -0.017428132 1.345693e-38 283 254
-0.044688959 0.708 -0.017379038 1.410011e-38 284 254
-0.043447599 0.708 -0.017379038 1.410011e-38 285 254
-0.042146627 0.70700002 -0.017354494 1.4008974e-38 286 254
-0.040675577 0.70300001 -0.017256306 1.4377397e-38 287 254
-0.039330769 0.70099998 -0.017207211 1.4744734e-38 288 254
-0.037938625 0.69800001 -0.017133573 1.483729e-38 289 254
-0.036662199 0.69700003 -0.017109027 1.4467447e-38 290 254
-0.035389278 0.69599998 -0.017084479 1.4467447e-38 291 254
-0.034070771 0.69400001 -0.017035386 1.409976e-38 292 254
-0.03280662 0.69300002 -0.01701084 1.409976e-38 293 254
-0.031500384 0.69099998 -0.016961746 1.3915735e-38 294 254
-0.030244999 0.69 -0.0169372 1.3454756e-38 295 254
-0.028908957 0.68699998 -0.01686356 1.2994501e-38 296 254
-0.027704418 0.68699998 -0.01686356 1.2441686e-38 297 254
-0.02638416 0.68400002 -0.016789921 1.1610848e-38 298 254
-0.02514806 0.68300003 -0.016765373 1.0965479e-38 299 254
-0.023950534 0.68300003 -0.016765373 9.4964652e-39 300 254
-0.022719691 0.68199998 -0.016740825 9.4964652e-39 301 254
-0.021523919 0.68199998 -0.016740825 9.5865126e-39 302 254
-0.020328145 0.68199998 -0.016740825 9.3095656e-39 303 254
-0.019132372 0.68199998 -0.016740825 8.9407873e-39 304 254
-0.017962901 0.68300003 -0.016765373 8.8485902e-39 305 254
-0.016765373 0.68300003 -0.016765373 8.7563946e-39 306 254
-0.01559064 0.68400002 -0.016789921 8.7563946e-39 307 254
-0.01439136 0.68400002 -0.016789921 9.0322556e-39 308 254
-0.01319208 0.68400002 -0.016789921 9.217007e-39 309 254
-0.0119928 0.68400002 -0.016789921 9.5850637e-39 310 254
-0.01079352 0.68400002 -0.016789921 9.7694549e-39 311 254
-0.0095942402 0.68400002 -0.016789921 1.0137516e-38 312 254
-0.0083949603 0.68400002 -0.016789921 1.0321907e-38 313 254
-0.0072167199 0.68599999 -0.016839013 1.0689969e-38 314 254
-0.0060139326 0.68599999 -0.016839013 1.0966197e-38 315 254
-0.0048111463 0.68599999 -0.016839013 1.1150229e-38 316 254
-0.0036136196 0.68699998 -0.01686356 1.133426e-38 317 254
-0.0024090798 0.68699998 -0.01686356 1.1425383e-38 318 254
-0.0012045399 0.68699998 -0.01686356 1.1517579e-38 319 254
0 0.68699998 -0.01686356 1.179309e-38 320 254
0.0012062934 0.68800002 -0.016888106 1.1977841e-38 321 254
0.0024125867 0.68800002 -0.016888106 1.1886359e-38 322 254
0.0036188802 0.68800002 -0.016888106 1.1978554e-38 323 254
0.0048391996 0.69 -0.0169372 1.2073624e-38 324 254
0.0060577663 0.69099998 -0.016961746 1.2258015e-38 325 254
0.0072693196 0.69099998 -0.016961746 1.2351288e-38 326 254
0.0085054198 0.69300002 -0.01701084 1.2535681e-38 327 254
0.0097204801 0.69300002 -0.01701084 1.2994857e-38 328 254
0.01095132 0.69400001 -0.017035386 1.2994857e-38 329 254
0.012168133 0.69400001 -0.017035386 1.2993782e-38 330 254
0.013384946 0.69400001 -0.017035386 1.2901585e-38 331 254
0.014643839 0.69599998 -0.017084479 1.2717197e-38 332 254
0.015886955 0.69700003 -0.017109027 1.2717197e-38 333 254
0.017133573 0.69800001 -0.017133573 1.2442052e-38 334 254
0.018436298 0.70099998 -0.017207211 1.2442052e-38 335 254
0.019721493 0.70300001 -0.017256306 1.2534248e-38 336 254
0.020983893 0.704 -0.017280852 1.271864e-38 337 254
0.022218239 0.704 -0.017280852 1.25364e-38 338 254
0.023519212 0.70599997 -0.017329946 1.25364e-38 339 254
0.024757065 0.70599997 -0.017329946 1.2443481e-38 340 254
0.02603174 0.70700002 -0.017354494 1.1705916e-38 341 254
0.027271347 0.70700002 -0.017354494 1.2169804e-38 342 254
-0.048618179 0.71100003 -0.0186993 1.4475789e-38 281 255
-0.047304932 0.70999998 -0.018672999 1.336401e-38 282 255
-0.046060063 0.70999998 -0.018672999 1.3824986e-38 283 255
-0.044688959 0.708 -0.0186204 1.4283057e-38 284 255
-0.043386232 0.70700002 -0.018594101 1.4006469e-38 285 255
-0.042087011 0.70599997 -0.018567799 1.4006819e-38 286 255
-0.040559858 0.70099998 -0.018436298 1.3914623e-38 287 255
-0.039274666 0.69999999 -0.018409999 1.4005747e-38 288 255
-0.037938625 0.69800001 -0.0183574 1.4282332e-38 289 255
-0.036662199 0.69700003 -0.018331099 1.4281981e-38 290 255
-0.035389278 0.69599998 -0.018304799 1.4281981e-38 291 255
-0.034021679 0.69300002 -0.018225901 1.3915003e-38 292 255
-0.032711938 0.69099998 -0.0181733 1.3730252e-38 293 255
-0.031454802 0.69 -0.018146999 1.3454393e-38 294 255
-0.030157333 0.68800002 -0.0180944 1.3362198e-38 295 255
-0.028908957 0.68699998 -0.018068098 1.2809743e-38 296 255
-0.027704418 0.68699998 -0.018068098 1.2348766e-38 297 255
-0.026461305 0.68599999 -0.018041799 1.1886709e-38 298 255
-0.025184879 0.68400002 -0.0179892 1.1333894e-38 299 255
-0.0239856 0.68400002 -0.0179892 1.0323348e-38 300 255
-0.022753006 0.68300003 -0.017962901 1.0047121e-38 301 255
-0.02155548 0.68300003 -0.017962901 9.401764e-39 302 255
-0.020357953 0.68300003 -0.017962901 9.0333416e-39 303 255
-0.019160427 0.68300003 -0.017962901 8.848593e-39 304 255
-0.017962901 0.68300003 -0.017962901 8.848593e-39 305 255
-0.016765373 0.68300003 -0.017962901 8.6656451e-39 306 255
-0.01559064 0.68400002 -0.0179892 8.6656451e-39 307 255
-0.01439136 0.68400002 -0.0179892 9.0333416e-39 308 255
-0.01319208 0.68400002 -0.0179892 9.3095684e-39 309 255
-0.0119928 0.68400002 -0.0179892 9.6772565e-39 310 255
-0.01079352 0.68400002 -0.0179892 9.8620079e-39 311 255
-0.0095942402 0.68400002 -0.0179892 1.0412661e-38 312 255
-0.0083949603 0.68400002 -0.0179892 1.0688887e-38 313 255
-0.0072167199 0.68599999 -0.018041799 1.069069e-38 314 255
-0.0060139326 0.68599999 -0.018041799 1.0875081e-38 315 255
-0.0048111463 0.68599999 -0.018041799 1.1150945e-38 316 255
-0.00360836 0.68599999 -0.018041799 1.1058749e-38 317 255
-0.0024090798 0.68699998 -0.018068098 1.1425734e-38 318 255
-0.0012045399 0.68699998 -0.018068098 1.1425734e-38 319 255
0 0.68699998 -0.018068098 1.1884913e-38 320 255
0.0012045399 0.68699998 -0.018068098 1.1977108e-38 321 255
0.0024125867 0.68800002 -0.0180944 1.1885989e-38 322 255
0.0036188802 0.68800002 -0.0180944 1.2254771e-38 323 255
0.0048391996 0.69 -0.018146999 1.2164373e-38 324 255
0.0060489997 0.69 -0.018146999 1.2348766e-38 325 255
0.0072693196 0.69099998 -0.0181733 1.2258371e-38 326 255
0.0085054198 0.69300002 -0.018225901 1.2442402e-38 327 255
0.0097204801 0.69300002 -0.018225901 1.2901941e-38 328 255
0.01095132 0.69400001 -0.0182522 1.2901941e-38 329 255
0.012168133 0.69400001 -0.0182522 1.2901941e-38 330 255
0.013384946 0.69400001 -0.0182522 1.2809387e-38 331 255
0.01460176 0.69400001 -0.0182522 1.2533879e-38 332 255
0.015864158 0.69599998 -0.018304799 1.2441683e-38 333 255
0.017133573 0.69800001 -0.0183574 1.2441683e-38 334 255
0.018409999 0.69999999 -0.018409999 1.2533879e-38 335 255
0.019721493 0.70300001 -0.018488899 1.2442405e-38 336 255
0.020983893 0.704 -0.018515198 1.2626796e-38 337 255
0.022218239 0.704 -0.018515198 1.2535678e-38 338 255
0.023519212 0.70599997 -0.018567799 1.2719709e-38 339 255
0.024757065 0.70599997 -0.018567799 1.2535678e-38 340 255
0.02603174 0.70700002 -0.018594101 1.207434e-38 341 255
0.027309919 0.708 -0.0186204 1.2076886e-38 342 255
0.02855128 0.708 -0.0186204 1.4381776e-38 343 255
-0.048549797 0.70999998 -0.019917866 1.3738218e-38 281 256
-0.047304932 0.70999998 -0.019917866 1.3731703e-38 282 256
-0.045930319 0.708 -0.01986176 1.400793e-38 283 256
-0.044625837 0.70700002 -0.019833706 1.4281978e-38 284 256
-0.043324865 0.70599997 -0.019805651 1.400575e-38 285 256
-0.041967787 0.704 -0.019749546 1.3913198e-38 286 256
-0.040559858 0.70099998 -0.019665385 1.3913198e-38 287 256
-0.039274666 0.69999999 -0.019637333 1.3730605e-38 288 256
-0.037938625 0.69800001 -0.019581227 1.38228e-38 289 256
-0.036662199 0.69700003 -0.019553173 1.4006469e-38 290 256
-0.035287585 0.69400001 -0.019469013 1.3914273e-38 291 256
-0.033923492 0.69099998 -0.019384852 1.3821724e-38 292 256
-0.032664597 0.69 -0.019356798 1.3637693e-38 293 256
-0.031363625 0.68800002 -0.019300694 1.3086684e-38 294 256
-0.030157333 0.68800002 -0.019300694 1.2994489e-38 295 256
-0.028908957 0.68699998 -0.019272638 1.2717547e-38 296 256
-0.027704418 0.68699998 -0.019272638 1.2164373e-38 297 256
-0.026461305 0.68599999 -0.019244585 1.179416e-38 298 256
-0.025258519 0.68599999 -0.019244585 1.1425736e-38 299 256
-0.0239856 0.68400002 -0.01918848 1.0507024e-38 300 256
-0.022753006 0.68300003 -0.019160427 1.0230077e-38 301 256
-0.02155548 0.68300003 -0.019160427 9.4935967e-39 302 256
-0.020357953 0.68300003 -0.019160427 9.3088467e-39 303 256
-0.019160427 0.68300003 -0.019160427 8.4826888e-39 304 256
-0.0179892 0.68400002 -0.01918848 8.4826888e-39 305 256
-0.016789921 0.68400002 -0.01918848 8.4830517e-39 306 256
-0.01559064 0.68400002 -0.01918848 8.5752474e-39 307 256
-0.01439136 0.68400002 -0.01918848 9.4010452e-39 308 256
-0.01319208 0.68400002 -0.01918848 9.4932408e-39 309 256
-0.0119928 0.68400002 -0.01918848 9.9527672e-39 310 256
-0.01079352 0.68400002 -0.01918848 1.0045323e-38 311 256
-0.0095942402 0.68400002 -0.01918848 1.0321907e-38 312 256
-0.0083949603 0.68400002 -0.01918848 1.0506297e-38 313 256
-0.0072167199 0.68599999 -0.019244585 1.069069e-38 314 256
-0.0060139326 0.68599999 -0.019244585 1.0875081e-38 315 256
-0.0048111463 0.68599999 -0.019244585 1.0967632e-38 316 256
-0.00360836 0.68599999 -0.019244585 1.0967632e-38 317 256
-0.0024090798 0.68699998 -0.019272638 1.1334257e-38 318 256
-0.0012045399 0.68699998 -0.019272638 1.1426453e-38 319 256
0 0.68699998 -0.019272638 1.1518288e-38 320 256
0.0012045399 0.68699998 -0.019272638 1.1702319e-38 321 256
0.0024125867 0.68800002 -0.019300694 1.1703044e-38 322 256
0.0036188802 0.68800002 -0.019300694 1.1979629e-38 323 256
0.0048251734 0.68800002 -0.019300694 1.1888512e-38 324 256
0.0060489997 0.69 -0.019356798 1.2164741e-38 325 256
0.0072587994 0.69 -0.019356798 1.2073621e-38 326 256
0.008480873 0.69099998 -0.019384852 1.2258371e-38 327 256
0.0097204801 0.69300002 -0.01944096 1.2534235e-38 328 256
0.010935539 0.69300002 -0.01944096 1.2810462e-38 329 256
0.012150601 0.69300002 -0.01944096 1.2901939e-38 330 256
0.013384946 0.69400001 -0.019469013 1.2809743e-38 331 256
0.01460176 0.69400001 -0.019469013 1.2534235e-38 332 256
0.015864158 0.69599998 -0.019525118 1.2349485e-38 333 256
0.017109027 0.69700003 -0.019553173 1.2256936e-38 334 256
0.0183574 0.69800001 -0.019581227 1.2441686e-38 335 256
0.019665385 0.70099998 -0.019665385 1.2442049e-38 336 256
0.020954086 0.70300001 -0.019721493 1.2626801e-38 337 256
0.022218239 0.704 -0.019749546 1.2443484e-38 338 256
0.023452586 0.704 -0.019749546 1.2443484e-38 339 256
0.024757065 0.70599997 -0.019805651 1.2443481e-38 340 256
0.026068559 0.708 -0.01986176 1.225909e-38 341 256
0.027309919 0.708 -0.01986176 1.189069e-38 342 256
0.02855128 0.708 -0.01986176 1.3550572e-38 343 256
0.02979264 0.708 -0.01986176 1.6596658e-38 344 256
-0.048413038 0.708 -0.021103119 1.3000287e-38 281 257
-0.047171678 0.708 -0.021103119 1.4008286e-38 282 257
-0.045865446 0.70700002 -0.021073313 1.391609e-38 283 257
-0.044625837 0.70700002 -0.021073313 1.4097945e-38 284 257
-0.043324865 0.70599997 -0.021043506 1.3821358e-38 285 257
-0.041967787 0.704 -0.020983893 1.3821358e-38 286 257
-0.040675577 0.70300001 -0.020954086 1.3821358e-38 287 257
-0.039274666 0.69999999 -0.020864666 1.3731677e-38 288 257
-0.037938625 0.69800001 -0.020805053 1.3639481e-38 289 257
-0.036662199 0.69700003 -0.020775247 1.3546211e-38 290 257
-0.035236739 0.69300002 -0.020656019 1.3454015e-38 291 257
-0.033923492 0.69099998 -0.020596405 1.3453299e-38 292 257
-0.032664597 0.69 -0.020566599 1.3453299e-38 293 257
-0.031363625 0.68800002 -0.020506985 1.2902289e-38 294 257
-0.030157333 0.68800002 -0.020506985 1.2717898e-38 295 257
-0.028908957 0.68699998 -0.020477179 1.2440962e-38 296 257
-0.027704418 0.68699998 -0.020477179 1.2072178e-38 297 257
-0.026461305 0.68599999 -0.020447372 1.1519371e-38 298 257
-0.025258519 0.68599999 -0.020447372 1.1058393e-38 299 257
-0.0239856 0.68400002 -0.020387759 1.0507021e-38 300 257
-0.022786319 0.68400002 -0.020387759 1.0322629e-38 301 257
-0.02155548 0.68300003 -0.020357953 9.5865098e-39 302 257
-0.020357953 0.68300003 -0.020357953 9.4021171e-39 303 257
-0.019160427 0.68300003 -0.020357953 8.7589127e-39 304 257
-0.0179892 0.68400002 -0.020387759 8.7589127e-39 305 257
-0.016789921 0.68400002 -0.020387759 8.6677989e-39 306 257
-0.01559064 0.68400002 -0.020387759 8.6677989e-39 307 257
-0.01439136 0.68400002 -0.020387759 9.4932408e-39 308 257
-0.01319208 0.68400002 -0.020387759 9.6772719e-39 309 257
-0.0119928 0.68400002 -0.020387759 1.0137519e-38 310 257
-0.01079352 0.68400002 -0.020387759 1.0229714e-38 311 257
-0.0095942402 0.68400002 -0.020387759 1.0505575e-38 312 257
-0.0083949603 0.68400002 -0.020387759 1.0689966e-38 313 257
-0.0072167199 0.68599999 -0.020447372 1.0874005e-38 314 257
-0.0060139326 0.68599999 -0.020447372 1.1058396e-38 315 257
-0.0048111463 0.68599999 -0.020447372 1.0875084e-38 316 257
-0.00360836 0.68599999 -0.020447372 1.0967279e-38 317 257
-0.0024090798 0.68699998 -0.020477179 1.1243496e-38 318 257
-0.0012045399 0.68699998 -0.020477179 1.1335692e-38 319 257
0 0.68699998 -0.020477179 1.1519004e-38 320 257
0.0012045399 0.68699998 -0.020477179 1.16112e-38 321 257
0.0024125867 0.68800002 -0.020506985 1.1611923e-38 322 257
0.0036188802 0.68800002 -0.020506985 1.1796314e-38 323 257
0.0048251734 0.68800002 -0.020506985 1.188851e-38 324 257
0.0060489997 0.69 -0.020566599 1.1980705e-38 325 257
0.0072587994 0.69 -0.020566599 1.2165092e-38 326 257
0.008480873 0.69099998 -0.020596405 1.2257289e-38 327 257
0.0097204801 0.69300002 -0.020656019 1.2442037e-38 328 257
0.010935539 0.69300002 -0.020656019 1.2534232e-38 329 257
0.012150601 0.69300002 -0.020656019 1.2717544e-38 330 257
0.013384946 0.69400001 -0.020685827 1.2717544e-38 331 257
0.01460176 0.69400001 -0.020685827 1.2625352e-38 332 257
0.015864158 0.69599998 -0.020745439 1.2256569e-38 333 257
0.017109027 0.69700003 -0.020775247 1.2256572e-38 334 257
0.0183574 0.69800001 -0.020805053 1.2348769e-38 335 257
0.019637333 0.69999999 -0.020864666 1.2258015e-38 336 257
0.020894472 0.70099998 -0.020894472 1.2442405e-38 337 257
0.022218239 0.704 -0.020983893 1.2443481e-38 338 257
0.023452586 0.704 -0.020983893 1.2443481e-38 339 257
0.024757065 0.70599997 -0.021043506 1.2443481e-38 340 257
0.02603174 0.70700002 -0.021073313 1.2443481e-38 341 257
0.027309919 0.708 -0.021103119 1.1614819e-38 342 257
0.02855128 0.708 -0.021103119 1.2628611e-38 343 257
0.02979264 0.708 -0.021103119 1.6043835e-38 344 257
0.031034 0.708 -0.021103119 1.7887747e-38 345 257
-0.049584266 0.70700002 -0.022312919 1.3553091e-38 280 258
-0.048344657 0.70700002 -0.022312919 1.2815526e-38 281 258
-0.047105055 0.70700002 -0.022312919 1.3915722e-38 282 258
-0.045865446 0.70700002 -0.022312919 1.3915722e-38 283 258
-0.044562716 0.70599997 -0.022281358 1.3913551e-38 284 258
-0.043202132 0.704 -0.022218239 1.3821356e-38 285 258
-0.041908171 0.70300001 -0.02218668 1.372916e-38 286 258
-0.040559858 0.70099998 -0.022123558 1.372916e-38 287 258
-0.039162453 0.69800001 -0.02202888 1.3546211e-38 288 258
-0.037884273 0.69700003 -0.02199732 1.3454015e-38 289 258
-0.036504399 0.69400001 -0.021902639 1.3453299e-38 290 258
-0.035135046 0.69099998 -0.021807959 1.3361102e-38 291 258
-0.0338744 0.69 -0.021776399 1.3177787e-38 292 258
-0.032664597 0.69 -0.021776399 1.3177787e-38 293 258
-0.031363625 0.68800002 -0.021713281 1.2810446e-38 294 258
-0.030157333 0.68800002 -0.021713281 1.2626055e-38 295 258
-0.028908957 0.68699998 -0.021681719 1.216509e-38 296 258
-0.027704418 0.68699998 -0.021681719 1.1704472e-38 297 258
-0.026499879 0.68699998 -0.021681719 1.1336056e-38 298 258
-0.025258519 0.68599999 -0.021650158 1.0967632e-38 299 258
-0.024055731 0.68599999 -0.021650158 1.0600292e-38 300 258
-0.022786319 0.68400002 -0.02158704 1.0323345e-38 301 258
-0.02158704 0.68400002 -0.02158704 9.496468e-39 302 258
-0.020357953 0.68300003 -0.02155548 9.311718e-39 303 258
-0.019160427 0.68300003 -0.02155548 8.7607134e-39 304 258
-0.0179892 0.68400002 -0.02158704 8.6685178e-39 305 258
-0.016789921 0.68400002 -0.02158704 8.7599945e-39 306 258
-0.01559064 0.68400002 -0.02158704 8.9440257e-39 307 258
-0.01439136 0.68400002 -0.02158704 9.7698221e-39 308 258
-0.01319208 0.68400002 -0.02158704 9.8623764e-39 309 258
-0.0119928 0.68400002 -0.02158704 1.0138237e-38 310 258
-0.01079352 0.68400002 -0.02158704 1.0322629e-38 311 258
-0.0095942402 0.68400002 -0.02158704 1.0874005e-38 312 258
-0.0083949603 0.68400002 -0.02158704 1.0874005e-38 313 258
-0.0071956799 0.68400002 -0.02158704 1.0966203e-38 314 258
-0.0059964 0.68400002 -0.02158704 1.1058399e-38 315 258
-0.0048111463 0.68599999 -0.021650158 1.0967279e-38 316 258
-0.00360836 0.68599999 -0.021650158 1.115131e-38 317 258
-0.0024055731 0.68599999 -0.021650158 1.1244215e-38 318 258
-0.0012045399 0.68699998 -0.021681719 1.1336411e-38 319 258
0 0.68699998 -0.021681719 1.1519723e-38 320 258
0.0012045399 0.68699998 -0.021681719 1.161192e-38 321 258
0.0024090798 0.68699998 -0.021681719 1.1428252e-38 322 258
0.0036188802 0.68800002 -0.021713281 1.1520806e-38 323 258
0.0048251734 0.68800002 -0.021713281 1.1796314e-38 324 258
0.0060314666 0.68800002 -0.021713281 1.188851e-38 325 258
0.0072587994 0.69 -0.021776399 1.216509e-38 326 258
0.008480873 0.69099998 -0.021807959 1.216509e-38 327 258
0.0096924258 0.69099998 -0.021807959 1.2441671e-38 328 258
0.010935539 0.69300002 -0.021871079 1.2625702e-38 329 258
0.012150601 0.69300002 -0.021871079 1.2809377e-38 330 258
0.013384946 0.69400001 -0.021902639 1.2717182e-38 331 258
0.01460176 0.69400001 -0.021902639 1.2440962e-38 332 258
0.015886955 0.69700003 -0.02199732 1.2164373e-38 333 258
0.017133573 0.69800001 -0.02202888 1.2071822e-38 334 258
0.0183574 0.69800001 -0.02202888 1.2256572e-38 335 258
0.019637333 0.69999999 -0.022091998 1.2166176e-38 336 258
0.020894472 0.70099998 -0.022123558 1.2534598e-38 337 258
0.02218668 0.70300001 -0.02218668 1.2443479e-38 338 258
0.023452586 0.704 -0.022218239 1.2443479e-38 339 258
0.024757065 0.70599997 -0.022281358 1.2351283e-38 340 258
0.025994917 0.70599997 -0.022281358 1.2351283e-38 341 258
0.027232772 0.70599997 -0.022281358 1.189068e-38 342 258
0.028470624 0.70599997 -0.022281358 1.189068e-38 343 258
0.029708479 0.70599997 -0.022281358 1.5030759e-38 344 258
0.030946331 0.70599997 -0.022281358 1.7612237e-38 345 258
-0.049584266 0.70700002 -0.023552528 1.3458376e-38 280 259
-0.048344657 0.70700002 -0.023552528 1.3181429e-38 281 259
-0.047038425 0.70599997 -0.023519212 1.3916075e-38 282 259
-0.04580057 0.70599997 -0.023519212 1.3731324e-38 283 259
-0.044562716 0.70599997 -0.023519212 1.3638043e-38 284 259
-0.043202132 0.704 -0.023452586 1.3545848e-38 285 259
-0.041908171 0.70300001 -0.023419274 1.3453662e-38 286 259
-0.040559858 0.70099998 -0.023352645 1.3269631e-38 287 259
-0.039162453 0.69800001 -0.023252707 1.3177083e-38 288 259
-0.037884273 0.69700003 -0.023219392 1.3084888e-38 289 259
-0.036451802 0.69300002 -0.02308614 1.3084882e-38 290 259
-0.035135046 0.69099998 -0.023019511 1.3084882e-38 291 259
-0.0338744 0.69 -0.022986198 1.2993759e-38 292 259
-0.032569919 0.68800002 -0.022919573 1.2993759e-38 293 259
-0.031363625 0.68800002 -0.022919573 1.2441671e-38 294 259
-0.030113498 0.68699998 -0.022886258 1.2349116e-38 295 259
-0.028908957 0.68699998 -0.022886258 1.188886e-38 296 259
-0.027704418 0.68699998 -0.022886258 1.1704469e-38 297 259
-0.026499879 0.68699998 -0.022886258 1.161227e-38 298 259
-0.025258519 0.68599999 -0.022852944 1.1336042e-38 299 259
-0.024055731 0.68599999 -0.022852944 1.0968704e-38 300 259
-0.022786319 0.68400002 -0.022786319 1.0691759e-38 301 259
-0.02158704 0.68400002 -0.022786319 9.9567174e-39 302 259
-0.020357953 0.68300003 -0.022753006 9.7723262e-39 303 259
-0.019160427 0.68300003 -0.022753006 9.4049884e-39 304 259
-0.017962901 0.68300003 -0.022753006 9.1284029e-39 305 259
-0.016765373 0.68300003 -0.022753006 9.4039136e-39 306 259
-0.015567848 0.68300003 -0.022753006 9.4039136e-39 307 259
-0.01439136 0.68400002 -0.022786319 9.9556384e-39 308 259
-0.01319208 0.68400002 -0.022786319 9.9556384e-39 309 259
-0.0119928 0.68400002 -0.022786319 1.0324781e-38 310 259
-0.01077774 0.68300003 -0.022753006 1.0416977e-38 311 259
-0.0095802136 0.68300003 -0.022753006 1.0966197e-38 312 259
-0.0083949603 0.68400002 -0.022786319 1.1058393e-38 313 259
-0.0071851597 0.68300003 -0.022753006 1.1058396e-38 314 259
-0.0059876335 0.68300003 -0.022753006 1.1058396e-38 315 259
-0.0048111463 0.68599999 -0.022852944 1.0967998e-38 316 259
-0.00360836 0.68599999 -0.022852944 1.1060194e-38 317 259
-0.0024055731 0.68599999 -0.022852944 1.1336408e-38 318 259
-0.0012045399 0.68699998 -0.022886258 1.1336408e-38 319 259
0 0.68699998 -0.022886258 1.16112e-38 320 259
0.0012045399 0.68699998 -0.022886258 1.16112e-38 321 259
0.0024090798 0.68699998 -0.022886258 1.1611567e-38 322 259
0.0036136196 0.68699998 -0.022886258 1.1703762e-38 323 259
0.0048251734 0.68800002 -0.022919573 1.1796314e-38 324 259
0.0060314666 0.68800002 -0.022919573 1.1796314e-38 325 259
0.0072377604 0.68800002 -0.022919573 1.1889582e-38 326 259
0.0084686 0.69 -0.022986198 1.1981777e-38 327 259
0.0096924258 0.69099998 -0.023019511 1.2073974e-38 328 259
0.010935539 0.69300002 -0.02308614 1.216617e-38 329 259
0.012150601 0.69300002 -0.02308614 1.2258371e-38 330 259
0.013384946 0.69400001 -0.023119451 1.2166176e-38 331 259
0.01460176 0.69400001 -0.023119451 1.2256569e-38 332 259
0.015886955 0.69700003 -0.023219392 1.2164373e-38 333 259
0.017133573 0.69800001 -0.023252707 1.2071822e-38 334 259
0.0183574 0.69800001 -0.023252707 1.2348769e-38 335 259
0.019637333 0.69999999 -0.023319334 1.1890675e-38 336 259
0.020894472 0.70099998 -0.023352645 1.2075425e-38 337 259
0.02218668 0.70300001 -0.023419274 1.2076141e-38 338 259
0.023452586 0.704 -0.023452586 1.2076141e-38 339 259
0.024686933 0.704 -0.023452586 1.2259453e-38 340 259
0.025994917 0.70599997 -0.023519212 1.2075422e-38 341 259
0.027232772 0.70599997 -0.023519212 1.1707365e-38 342 259
0.028470624 0.70599997 -0.023519212 1.1246027e-38 343 259
0.029708479 0.70599997 -0.023519212 1.4567616e-38 344 259
0.030946331 0.70599997 -0.023519212 1.7794463e-38 345 259
-0.049584266 0.70700002 -0.024792133 1.3550572e-38 280 260
-0.048344657 0.70700002 -0.024792133 1.3273983e-38 281 260
-0.047038425 0.70599997 -0.024757065 1.3915003e-38 282 260
-0.04580057 0.70599997 -0.024757065 1.3638056e-38 283 260
-0.044436477 0.704 -0.024686933 1.3545492e-38 284 260
-0.043202132 0.704 -0.024686933 1.3361099e-38 285 260
-0.041908171 0.70300001 -0.024651866 1.3268904e-38 286 260
-0.040559858 0.70099998 -0.024581732 1.3176708e-38 287 260
-0.039162453 0.69800001 -0.024476532 1.3175636e-38 288 260
-0.037829921 0.69599998 -0.0244064 1.3267832e-38 289 260
-0.036451802 0.69300002 -0.024301201 1.2809725e-38 290 260
-0.035135046 0.69099998 -0.024231065 1.2809725e-38 291 260
-0.0338744 0.69 -0.024195999 1.2993037e-38 292 260
-0.032569919 0.68800002 -0.024125867 1.2900841e-38 293 260
-0.031363625 0.68800002 -0.024125867 1.2532432e-38 294 260
-0.030113498 0.68699998 -0.024090799 1.1979258e-38 295 260
-0.028908957 0.68699998 -0.024090799 1.1796667e-38 296 260
-0.027704418 0.68699998 -0.024090799 1.1888863e-38 297 260
-0.026499879 0.68699998 -0.024090799 1.1338563e-38 298 260
-0.025258519 0.68599999 -0.024055731 1.1153813e-38 299 260
-0.024055731 0.68599999 -0.024055731 1.0692841e-38 300 260
-0.022786319 0.68400002 -0.0239856 1.0600645e-38 301 260
-0.02158704 0.68400002 -0.0239856 9.6822956e-39 302 260
-0.020357953 0.68300003 -0.023950534 9.6822956e-39 303 260
-0.019160427 0.68300003 -0.023950534 9.3142403e-39 304 260
-0.017962901 0.68300003 -0.023950534 9.3142403e-39 305 260
-0.016765373 0.68300003 -0.023950534 9.2231237e-39 306 260
-0.015567848 0.68300003 -0.023950534 9.2231237e-39 307 260
-0.014370319 0.68300003 -0.023950534 9.9578063e-39 308 260
-0.01319208 0.68400002 -0.0239856 1.0050002e-38 309 260
-0.0119928 0.68400002 -0.0239856 1.0234749e-38 310 260
-0.01077774 0.68300003 -0.023950534 1.0326945e-38 311 260
-0.0095802136 0.68300003 -0.023950534 1.0968717e-38 312 260
-0.0083826864 0.68300003 -0.023950534 1.0784686e-38 313 260
-0.0071851597 0.68300003 -0.023950534 1.0875447e-38 314 260
-0.0059876335 0.68300003 -0.023950534 1.0875447e-38 315 260
-0.0048111463 0.68599999 -0.024055731 1.1151666e-38 316 260
-0.00360836 0.68599999 -0.024055731 1.1336059e-38 317 260
-0.0024055731 0.68599999 -0.024055731 1.1336775e-38 318 260
-0.0012027866 0.68599999 -0.024055731 1.1152744e-38 319 260
0 0.68599999 -0.024055731 1.1611923e-38 320 260
0.0012045399 0.68699998 -0.024090799 1.1611923e-38 321 260
0.0024090798 0.68699998 -0.024090799 1.1703397e-38 322 260
0.0036136196 0.68699998 -0.024090799 1.1795592e-38 323 260
0.0048251734 0.68800002 -0.024125867 1.1796667e-38 324 260
0.0060314666 0.68800002 -0.024125867 1.1796667e-38 325 260
0.0072377604 0.68800002 -0.024125867 1.1981412e-38 326 260
0.0084686 0.69 -0.024195999 1.1981412e-38 327 260
0.0096924258 0.69099998 -0.024231065 1.2348036e-38 328 260
0.010935539 0.69300002 -0.024301201 1.2440232e-38 329 260
0.012150601 0.69300002 -0.024301201 1.2532434e-38 330 260
0.01336566 0.69300002 -0.024301201 1.2532434e-38 331 260
0.01460176 0.69400001 -0.024336265 1.2439884e-38 332 260
0.015864158 0.69599998 -0.0244064 1.2163657e-38 333 260
0.017109027 0.69700003 -0.024441468 1.2071459e-38 334 260
0.0183574 0.69800001 -0.024476532 1.2347686e-38 335 260
0.019637333 0.69999999 -0.024546666 1.2073977e-38 336 260
0.020894472 0.70099998 -0.024581732 1.2166173e-38 337 260
0.02218668 0.70300001 -0.024651866 1.2166538e-38 338 260
0.023419274 0.70300001 -0.024651866 1.2166538e-38 339 260
0.024686933 0.704 -0.024686933 1.2075422e-38 340 260
0.025994917 0.70599997 -0.024757065 1.2075422e-38 341 260
0.027232772 0.70599997 -0.024757065 1.1890309e-38 342 260
0.028470624 0.70599997 -0.024757065 1.1613721e-38 343 260
0.029708479 0.70599997 -0.024757065 1.4198107e-38 344 260
0.030946331 0.70599997 -0.024757065 1.751715e-38 345 260
