# .PCD v.7 - Point Cloud Data file format
FIELDS x y z rgb imX imY
SIZE 4 4 4 4 4 4
TYPE F F F F F F
COUNT 1 1 1 1 1 1
WIDTH 837
HEIGHT 1
VIEWPOINT 0 0 0 1 0 0 0
POINTS 837
DATA ascii
0.0024581731 0.70099998 -0.029498078 1.0328424e-38 322 264
0.0036872597 0.70099998 -0.029498078 1.0420622e-38 323 264
0.0049303733 0.70300001 -0.029582238 1.032878e-38 324 264
0.0061629666 0.70300001 -0.029582238 1.032878e-38 325 264
0.0073955595 0.70300001 -0.029582238 1.0420257e-38 326 264
0.0086281532 0.70300001 -0.029582238 1.0512454e-38 327 264
0.0098747732 0.704 -0.029624319 1.0696485e-38 328 264
0.011109119 0.704 -0.029624319 1.0788681e-38 329 264
0.012343466 0.704 -0.029624319 1.0973428e-38 330 264
0.013635674 0.70700002 -0.029750559 1.0973428e-38 331 264
0.01489632 0.708 -0.02979264 1.1157824e-38 332 264
0.016183265 0.70999998 -0.029876797 1.1157824e-38 333 264
0.017428132 0.70999998 -0.029876797 1.1433334e-38 334 264
0.0186993 0.71100003 -0.029918881 1.1433334e-38 335 264
0.020002026 0.713 -0.030003037 1.1708129e-38 336 264
0.021252153 0.713 -0.030003037 1.2076551e-38 337 264
0.022533838 0.71399999 -0.030045118 1.1893955e-38 338 264
0.02388566 0.71700001 -0.030171359 1.1617728e-38 339 264
0.025212931 0.71899998 -0.030255521 1.4194887e-38 340 264
0.026620859 0.72299999 -0.030423839 1.8251495e-38 341 264
0.02788852 0.72299999 -0.030423839 1.7517896e-38 342 264
-0.049712259 0.727 -0.03186683 1.6317908e-38 281 265
-0.048437584 0.727 -0.03186683 1.3643501e-38 282 265
-0.047227785 0.72799999 -0.031910665 1.3367275e-38 283 265
-0.045951359 0.72799999 -0.031910665 1.3460189e-38 284 265
-0.044613566 0.727 -0.03186683 1.2999212e-38 285 265
-0.041610107 0.69800001 -0.030595668 1.2630075e-38 286 265
-0.040386278 0.69800001 -0.030595668 1.2630075e-38 287 265
-0.039162453 0.69800001 -0.030595668 1.2171252e-38 288 265
-0.037938625 0.69800001 -0.030595668 1.198686e-38 289 265
-0.036662199 0.69700003 -0.030551834 1.2353116e-38 290 265
-0.035440128 0.69700003 -0.030551834 1.2169085e-38 291 265
-0.034168959 0.69599998 -0.030507999 1.2077608e-38 292 265
-0.032948639 0.69599998 -0.030507999 1.1985412e-38 293 265
-0.031728316 0.69599998 -0.030507999 1.0973413e-38 294 265
-0.030507999 0.69599998 -0.030507999 1.0512074e-38 295 265
-0.029287677 0.69599998 -0.030507999 9.8670554e-39 296 265
-0.027986705 0.69400001 -0.030420333 9.4064359e-39 297 265
-0.026769891 0.69400001 -0.030420333 9.4964834e-39 298 265
-0.025626717 0.69599998 -0.030507999 9.588679e-39 299 265
-0.0244064 0.69599998 -0.030507999 9.3167781e-39 300 265
-0.023219392 0.69700003 -0.030551834 9.1323868e-39 301 265
-0.02199732 0.69700003 -0.030551834 9.5026113e-39 302 265
-0.020775247 0.69700003 -0.030551834 1.0701154e-38 303 265
-0.019637333 0.69999999 -0.030683333 1.1435848e-38 304 265
-0.018409999 0.69999999 -0.030683333 1.16206e-38 305 265
-0.017182667 0.69999999 -0.030683333 1.226418e-38 306 265
-0.015955333 0.69999999 -0.030683333 1.2448931e-38 307 265
-0.014727999 0.69999999 -0.030683333 1.1805003e-38 308 265
-0.013500666 0.69999999 -0.030683333 1.1620612e-38 309 265
-0.012273333 0.69999999 -0.030683333 1.1527698e-38 310 265
-0.011045999 0.69999999 -0.030683333 1.1343305e-38 311 265
-0.0097906133 0.69800001 -0.030595668 1.1066722e-38 312 265
-0.0085667865 0.69800001 -0.030595668 1.0974527e-38 313 265
-0.0073429602 0.69800001 -0.030595668 1.0790498e-38 314 265
-0.006119133 0.69800001 -0.030595668 1.051427e-38 315 265
-0.0049093333 0.69999999 -0.030683333 1.0422075e-38 316 265
-0.0036819996 0.69999999 -0.030683333 1.0422075e-38 317 265
-0.0024546667 0.69999999 -0.030683333 1.0146564e-38 318 265
-0.0012273333 0.69999999 -0.030683333 1.005401e-38 319 265
0 0.70099998 -0.030727165 1.0237678e-38 320 265
0.0012290865 0.70099998 -0.030727165 1.0145482e-38 321 265
0.0024581731 0.70099998 -0.030727165 1.0420622e-38 322 265
0.0036872597 0.70099998 -0.030727165 1.0328424e-38 323 265
0.0049303733 0.70300001 -0.030814834 1.0420257e-38 324 265
0.0061629666 0.70300001 -0.030814834 1.0420257e-38 325 265
0.0073955595 0.70300001 -0.030814834 1.0603569e-38 326 265
0.0086281532 0.70300001 -0.030814834 1.0603569e-38 327 265
0.0098747732 0.704 -0.030858666 1.0513892e-38 328 265
0.011109119 0.704 -0.030858666 1.0606088e-38 329 265
0.012343466 0.704 -0.030858666 1.097415e-38 330 265
0.013635674 0.70700002 -0.030990168 1.097415e-38 331 265
0.01489632 0.708 -0.031034 1.1433334e-38 332 265
0.016183265 0.70999998 -0.031121666 1.152553e-38 333 265
0.01745268 0.71100003 -0.031165501 1.1433337e-38 334 265
0.0186993 0.71100003 -0.031165501 1.1433337e-38 335 265
0.020002026 0.713 -0.031253166 1.1708845e-38 336 265
0.021252153 0.713 -0.031253166 1.1893236e-38 337 265
0.022533838 0.71399999 -0.031296998 1.1801394e-38 338 265
0.02388566 0.71700001 -0.031428497 1.2169818e-38 339 265
0.025248 0.72000003 -0.03156 1.5208316e-38 340 265
0.026510401 0.72000003 -0.03156 1.8527359e-38 341 265
-0.048437584 0.727 -0.033141505 1.4289227e-38 282 266
-0.047162913 0.727 -0.033141505 1.3459826e-38 283 266
-0.045888241 0.727 -0.033141505 1.3643852e-38 284 266
-0.044613566 0.727 -0.033141505 1.3367625e-38 285 266
-0.043219667 0.72500002 -0.033050332 1.3274357e-38 286 266
-0.040386278 0.69800001 -0.031819493 1.2997769e-38 287 266
-0.039162453 0.69800001 -0.031819493 1.2263445e-38 288 266
-0.037938625 0.69800001 -0.031819493 1.217125e-38 289 266
-0.0367148 0.69800001 -0.031819493 1.1986141e-38 290 266
-0.035440128 0.69700003 -0.03177391 1.1893587e-38 291 266
-0.034218054 0.69700003 -0.03177391 1.1434053e-38 292 266
-0.032948639 0.69599998 -0.031728316 1.1341858e-38 293 266
-0.031728316 0.69599998 -0.031728316 1.1065627e-38 294 266
-0.030507999 0.69599998 -0.031728316 1.0788681e-38 295 266
-0.029287677 0.69599998 -0.031728316 1.0603201e-38 296 266
-0.027986705 0.69400001 -0.031637147 1.0511005e-38 297 266
-0.026769891 0.69400001 -0.031637147 1.078615e-38 298 266
-0.025626717 0.69599998 -0.031728316 1.0693955e-38 299 266
-0.0244064 0.69599998 -0.031728316 1.0696122e-38 300 266
-0.023219392 0.69700003 -0.03177391 1.0880514e-38 301 266
-0.02199732 0.69700003 -0.03177391 1.1341492e-38 302 266
-0.020775247 0.69700003 -0.03177391 1.198686e-38 303 266
-0.019637333 0.69999999 -0.031910665 1.1803189e-38 304 266
-0.018409999 0.69999999 -0.031910665 1.1710993e-38 305 266
-0.017182667 0.69999999 -0.031910665 1.1711363e-38 306 266
-0.015955333 0.69999999 -0.031910665 1.198795e-38 307 266
-0.014727999 0.69999999 -0.031910665 1.1437303e-38 308 266
-0.013500666 0.69999999 -0.031910665 1.1344748e-38 309 266
-0.012273333 0.69999999 -0.031910665 1.1435145e-38 310 266
-0.011045999 0.69999999 -0.031910665 1.1250754e-38 311 266
-0.0098186666 0.69999999 -0.031910665 1.1250391e-38 312 266
-0.0085913334 0.69999999 -0.031910665 1.1065641e-38 313 266
-0.0073639993 0.69999999 -0.031910665 1.0882331e-38 314 266
-0.0061366665 0.69999999 -0.031910665 1.069758e-38 315 266
-0.0049093333 0.69999999 -0.031910665 1.0422794e-38 316 266
-0.0036819996 0.69999999 -0.031910665 1.0238404e-38 317 266
-0.0024546667 0.69999999 -0.031910665 1.0054728e-38 318 266
-0.0012273333 0.69999999 -0.031910665 1.0054728e-38 319 266
0 0.70099998 -0.031956252 1.0238031e-38 320 266
0.0012290865 0.70099998 -0.031956252 1.0238031e-38 321 266
0.0024581731 0.70099998 -0.031956252 1.0420257e-38 322 266
0.0036977797 0.70300001 -0.032047424 1.0512454e-38 323 266
0.0049303733 0.70300001 -0.032047424 1.0420257e-38 324 266
0.0061629666 0.70300001 -0.032047424 1.0420257e-38 325 266
0.0073955595 0.70300001 -0.032047424 1.0420624e-38 326 266
0.0086281532 0.70300001 -0.032047424 1.0420624e-38 327 266
0.0098747732 0.704 -0.032093015 1.0513542e-38 328 266
0.011109119 0.704 -0.032093015 1.0697933e-38 329 266
0.012343466 0.704 -0.032093015 1.0789766e-38 330 266
0.013635674 0.70700002 -0.032229774 1.1065994e-38 331 266
0.014938398 0.70999998 -0.032366529 1.1434053e-38 332 266
0.016183265 0.70999998 -0.032366529 1.1434053e-38 333 266
0.01745268 0.71100003 -0.032412119 1.152553e-38 334 266
0.018751899 0.713 -0.032503292 1.152553e-38 335 266
0.020002026 0.713 -0.032503292 1.1801394e-38 336 266
0.021252153 0.713 -0.032503292 1.1985785e-38 337 266
0.022596961 0.71600002 -0.032640055 1.2076536e-38 338 266
0.023952285 0.71899998 -0.032776814 1.3367275e-38 339 266
0.025318133 0.722 -0.032913569 1.5854404e-38 340 266
0.026584039 0.722 -0.032913569 1.8528078e-38 341 266
-0.048437584 0.727 -0.03441618 1.5211185e-38 282 267
-0.047162913 0.727 -0.03441618 1.382825e-38 283 267
-0.045888241 0.727 -0.03441618 1.3735331e-38 284 267
-0.044490833 0.72500002 -0.034321502 1.3643136e-38 285 267
-0.041610107 0.69800001 -0.033043321 1.309033e-38 286 267
-0.040386278 0.69800001 -0.033043321 1.2814104e-38 287 267
-0.039162453 0.69800001 -0.033043321 1.2169097e-38 288 267
-0.037938625 0.69800001 -0.033043321 1.2169097e-38 289 267
-0.0367148 0.69800001 -0.033043321 1.1984706e-38 290 267
-0.035490975 0.69800001 -0.033043321 1.1800675e-38 291 267
-0.034218054 0.69700003 -0.03299598 1.1617002e-38 292 267
-0.03299598 0.69700003 -0.03299598 1.1524448e-38 293 267
-0.03177391 0.69700003 -0.03299598 1.1248936e-38 294 267
-0.030551834 0.69700003 -0.03299598 1.0972709e-38 295 267
-0.02932976 0.69700003 -0.03299598 1.0789034e-38 296 267
-0.028067358 0.69599998 -0.032948639 1.088123e-38 297 267
-0.026847038 0.69599998 -0.032948639 1.1343287e-38 298 267
-0.025626717 0.69599998 -0.032948639 1.1896461e-38 299 267
-0.0244064 0.69599998 -0.032948639 1.2722627e-38 300 267
-0.023219392 0.69700003 -0.03299598 1.2630073e-38 301 267
-0.02199732 0.69700003 -0.03299598 1.2721908e-38 302 267
-0.020775247 0.69700003 -0.03299598 1.2814104e-38 303 267
-0.019637333 0.69999999 -0.033137999 1.1988659e-38 304 267
-0.018409999 0.69999999 -0.033137999 1.1896105e-38 305 267
-0.017182667 0.69999999 -0.033137999 1.1620965e-38 306 267
-0.015955333 0.69999999 -0.033137999 1.1436574e-38 307 267
-0.014727999 0.69999999 -0.033137999 1.1435145e-38 308 267
-0.013500666 0.69999999 -0.033137999 1.1527701e-38 309 267
-0.012273333 0.69999999 -0.033137999 1.1159637e-38 310 267
-0.011045999 0.69999999 -0.033137999 1.1159637e-38 311 267
-0.0098186666 0.69999999 -0.033137999 1.097489e-38 312 267
-0.0085913334 0.69999999 -0.033137999 1.0882694e-38 313 267
-0.0073639993 0.69999999 -0.033137999 1.0606466e-38 314 267
-0.0061366665 0.69999999 -0.033137999 1.0606466e-38 315 267
-0.0049093333 0.69999999 -0.033137999 1.0239123e-38 316 267
-0.0036819996 0.69999999 -0.033137999 1.0146927e-38 317 267
-0.0024546667 0.69999999 -0.033137999 1.0147283e-38 318 267
-0.0012290865 0.70099998 -0.03318534 1.0054728e-38 319 267
0 0.70300001 -0.033280019 1.0146558e-38 320 267
0.0012325933 0.70300001 -0.033280019 1.0054363e-38 321 267
0.0024651866 0.70300001 -0.033280019 1.0329505e-38 322 267
0.0036977797 0.70300001 -0.033280019 1.0237309e-38 323 267
0.0049303733 0.70300001 -0.033280019 1.0420257e-38 324 267
0.0061717331 0.704 -0.03332736 1.0420257e-38 325 267
0.0074060797 0.704 -0.03332736 1.0603569e-38 326 267
0.0086404262 0.704 -0.03332736 1.0695766e-38 327 267
0.0098747732 0.704 -0.03332736 1.0605371e-38 328 267
0.011109119 0.704 -0.03332736 1.0697567e-38 329 267
0.012378532 0.70599997 -0.033422034 1.1065997e-38 330 267
0.013635674 0.70700002 -0.033469379 1.1158192e-38 331 267
0.014938398 0.70999998 -0.033611398 1.1342583e-38 332 267
0.016183265 0.70999998 -0.033611398 1.1434779e-38 333 267
0.01745268 0.71100003 -0.033658739 1.1435135e-38 334 267
0.018778199 0.71399999 -0.033800758 1.1342581e-38 335 267
0.020030079 0.71399999 -0.033800758 1.1893955e-38 336 267
0.021341572 0.71600002 -0.03389544 1.1801759e-38 337 267
0.02262852 0.71700001 -0.033942781 1.2169097e-38 338 267
0.023952285 0.71899998 -0.03403746 1.4382153e-38 339 267
0.025318133 0.722 -0.034179479 1.6316108e-38 340 267
0.026584039 0.722 -0.034179479 1.8252217e-38 341 267
-0.048437584 0.727 -0.035690852 1.668487e-38 282 268
-0.047162913 0.727 -0.035690852 1.4472173e-38 283 268
-0.045888241 0.727 -0.035690852 1.3367981e-38 284 268
-0.044490833 0.72500002 -0.035592668 1.3460177e-38 285 268
-0.041610107 0.69800001 -0.034267146 1.3642417e-38 286 268
-0.040386278 0.69800001 -0.034267146 1.3181079e-38 287 268
-0.039162453 0.69800001 -0.034267146 1.1983984e-38 288 268
-0.037938625 0.69800001 -0.034267146 1.1983984e-38 289 268
-0.0367148 0.69800001 -0.034267146 1.1983984e-38 290 268
-0.035490975 0.69800001 -0.034267146 1.1983984e-38 291 268
-0.034218054 0.69700003 -0.034218054 1.1617e-38 292 268
-0.03299598 0.69700003 -0.034218054 1.1524804e-38 293 268
-0.03177391 0.69700003 -0.034218054 1.1341492e-38 294 268
-0.030551834 0.69700003 -0.034218054 1.115674e-38 295 268
-0.02932976 0.69700003 -0.034218054 1.1157094e-38 296 268
-0.028107686 0.69700003 -0.034218054 1.1341485e-38 297 268
-0.026885614 0.69700003 -0.034218054 1.1894659e-38 298 268
-0.025626717 0.69599998 -0.034168959 1.2263801e-38 299 268
-0.0244064 0.69599998 -0.034168959 1.2721905e-38 300 268
-0.023219392 0.69700003 -0.034218054 1.2444958e-38 301 268
-0.02199732 0.69700003 -0.034218054 1.2353843e-38 302 268
-0.020805053 0.69800001 -0.034267146 1.2630429e-38 303 268
-0.019637333 0.69999999 -0.034365334 1.1987224e-38 304 268
-0.018409999 0.69999999 -0.034365334 1.1803193e-38 305 268
-0.017182667 0.69999999 -0.034365334 1.1343305e-38 306 268
-0.015955333 0.69999999 -0.034365334 1.1343305e-38 307 268
-0.014727999 0.69999999 -0.034365334 1.1067088e-38 308 268
-0.013500666 0.69999999 -0.034365334 1.1159284e-38 309 268
-0.012273333 0.69999999 -0.034365334 1.1067088e-38 310 268
-0.011045999 0.69999999 -0.034365334 1.1067088e-38 311 268
-0.0098186666 0.69999999 -0.034365334 1.1066725e-38 312 268
-0.0085913334 0.69999999 -0.034365334 1.0974171e-38 313 268
-0.0073639993 0.69999999 -0.034365334 1.0882331e-38 314 268
-0.0061366665 0.69999999 -0.034365334 1.0789775e-38 315 268
-0.0049163462 0.70099998 -0.034414422 1.0606819e-38 316 268
-0.0036872597 0.70099998 -0.034414422 1.0514623e-38 317 268
-0.0024581731 0.70099998 -0.034414422 1.0238757e-38 318 268
-0.0012290865 0.70099998 -0.034414422 1.0238757e-38 319 268
0 0.70300001 -0.034512613 1.0513539e-38 320 268
0.0012325933 0.70300001 -0.034512613 1.0329508e-38 321 268
0.0024651866 0.70300001 -0.034512613 1.0513173e-38 322 268
0.0036977797 0.70300001 -0.034512613 1.0513173e-38 323 268
0.0049373866 0.704 -0.034561705 1.0603567e-38 324 268
0.0061717331 0.704 -0.034561705 1.0603567e-38 325 268
0.0074060797 0.704 -0.034561705 1.0603569e-38 326 268
0.0086404262 0.704 -0.034561705 1.0787962e-38 327 268
0.0098747732 0.704 -0.034561705 1.0605016e-38 328 268
0.011140679 0.70599997 -0.034659892 1.0973797e-38 329 268
0.012396066 0.70700002 -0.034708988 1.1158192e-38 330 268
0.013654959 0.708 -0.034758076 1.1250388e-38 331 268
0.014938398 0.70999998 -0.034856264 1.1434779e-38 332 268
0.01620606 0.71100003 -0.034905359 1.1434779e-38 333 268
0.017501773 0.713 -0.035003547 1.171064e-38 334 268
0.018778199 0.71399999 -0.035052639 1.171064e-38 335 268
0.020030079 0.71399999 -0.035052639 1.2078701e-38 336 268
0.021341572 0.71600002 -0.035150826 1.1986505e-38 337 268
0.02262852 0.71700001 -0.035199918 1.2353849e-38 338 268
0.023952285 0.71899998 -0.035298105 1.4935326e-38 339 268
0.025212931 0.71899998 -0.035298105 1.6868926e-38 340 268
-0.047162913 0.727 -0.036965527 1.5209738e-38 283 269
-0.045888241 0.727 -0.036965527 1.3183231e-38 284 269
-0.044490833 0.72500002 -0.036863834 1.3644208e-38 285 269
-0.043100435 0.72299999 -0.036762137 1.3367994e-38 286 269
-0.041832779 0.72299999 -0.036762137 1.2999212e-38 287 269
-0.039162453 0.69800001 -0.035490975 1.2721903e-38 288 269
-0.037938625 0.69800001 -0.035490975 1.2076533e-38 289 269
-0.0367148 0.69800001 -0.035490975 1.1894296e-38 290 269
-0.035490975 0.69800001 -0.035490975 1.1801741e-38 291 269
-0.034218054 0.69700003 -0.035440128 1.1618429e-38 292 269
-0.03299598 0.69700003 -0.035440128 1.1526233e-38 293 269
-0.03177391 0.69700003 -0.035440128 1.1342561e-38 294 269
-0.030595668 0.69800001 -0.035490975 1.1065974e-38 295 269
-0.029371841 0.69800001 -0.035490975 1.1249645e-38 296 269
-0.028148014 0.69800001 -0.035490975 1.1434038e-38 297 269
-0.026885614 0.69700003 -0.035440128 1.1619151e-38 298 269
-0.025663542 0.69700003 -0.035440128 1.1619151e-38 299 269
-0.024441468 0.69700003 -0.035440128 1.216945e-38 300 269
-0.023252707 0.69800001 -0.035490975 1.2077255e-38 301 269
-0.02202888 0.69800001 -0.035490975 1.1985785e-38 302 269
-0.020805053 0.69800001 -0.035490975 1.2169818e-38 303 269
-0.019637333 0.69999999 -0.035592664 1.1986152e-38 304 269
-0.018409999 0.69999999 -0.035592664 1.1801759e-38 305 269
-0.017182667 0.69999999 -0.035592664 1.1525898e-38 306 269
-0.015978126 0.70099998 -0.035643511 1.1525898e-38 307 269
-0.014749039 0.70099998 -0.035643511 1.1066725e-38 308 269
-0.013500666 0.69999999 -0.035592664 1.1250756e-38 309 269
-0.012273333 0.69999999 -0.035592664 1.1067088e-38 310 269
-0.011045999 0.69999999 -0.035592664 1.1067088e-38 311 269
-0.0098326923 0.70099998 -0.035643511 1.1067088e-38 312 269
-0.0086036054 0.70099998 -0.035643511 1.0974893e-38 313 269
-0.0073745195 0.70099998 -0.035643511 1.088305e-38 314 269
-0.0061454331 0.70099998 -0.035643511 1.0790496e-38 315 269
-0.0049303733 0.70300001 -0.035745207 1.0514984e-38 316 269
-0.0036977797 0.70300001 -0.035745207 1.0422788e-38 317 269
-0.0024651866 0.70300001 -0.035745207 1.0422425e-38 318 269
-0.0012325933 0.70300001 -0.035745207 1.0330229e-38 319 269
0 0.70300001 -0.035745207 1.0330227e-38 320 269
0.0012343467 0.704 -0.035796054 1.0330227e-38 321 269
0.0024686933 0.704 -0.035796054 1.0605371e-38 322 269
0.0037030398 0.704 -0.035796054 1.0513176e-38 323 269
0.0049373866 0.704 -0.035796054 1.0695046e-38 324 269
0.0061717331 0.704 -0.035796054 1.0695046e-38 325 269
0.0074060797 0.704 -0.035796054 1.0603567e-38 326 269
0.0086649731 0.70599997 -0.035897743 1.0696122e-38 327 269
0.0099028256 0.70599997 -0.035897743 1.0880879e-38 328 269
0.011140679 0.70599997 -0.035897743 1.1065271e-38 329 269
0.0124136 0.708 -0.03599944 1.1250388e-38 330 269
0.013693533 0.70999998 -0.036101133 1.1342583e-38 331 269
0.014959441 0.71100003 -0.036151983 1.171029e-38 332 269
0.01620606 0.71100003 -0.036151983 1.1802487e-38 333 269
0.017501773 0.713 -0.036253672 1.180284e-38 334 269
0.0188308 0.71600002 -0.036406212 1.180284e-38 335 269
0.020086186 0.71600002 -0.036406212 1.2354568e-38 336 269
0.021341572 0.71600002 -0.036406212 1.2262013e-38 337 269
0.02262852 0.71700001 -0.036457058 1.2719754e-38 338 269
0.023952285 0.71899998 -0.036558751 1.5854404e-38 339 269
0.025212931 0.71899998 -0.036558751 1.7422103e-38 340 269
-0.045888241 0.727 -0.038240198 1.3735684e-38 284 270
-0.044490833 0.72500002 -0.038135 1.3735684e-38 285 270
-0.043040827 0.722 -0.0379772 1.3736053e-38 286 270
-0.041774917 0.722 -0.0379772 1.3367272e-38 287 270
-0.040509012 0.722 -0.0379772 1.2907369e-38 288 270
-0.037938625 0.69800001 -0.0367148 1.2630782e-38 289 270
-0.0367148 0.69800001 -0.0367148 1.21716e-38 290 270
-0.035592664 0.69999999 -0.036819998 1.2079404e-38 291 270
-0.034414422 0.70099998 -0.036872596 1.1987925e-38 292 270
-0.033137999 0.69999999 -0.036819998 1.1803892e-38 293 270
-0.031910665 0.69999999 -0.036819998 1.1435836e-38 294 270
-0.030727165 0.70099998 -0.036872596 1.1251444e-38 295 270
-0.029498078 0.70099998 -0.036872596 1.1433685e-38 296 270
-0.028228667 0.69999999 -0.036819998 1.152588e-38 297 270
-0.026924185 0.69800001 -0.0367148 1.1434406e-38 298 270
-0.025700359 0.69800001 -0.0367148 1.1434406e-38 299 270
-0.024476532 0.69800001 -0.0367148 1.1800675e-38 300 270
-0.023252707 0.69800001 -0.0367148 1.1708479e-38 301 270
-0.02202888 0.69800001 -0.0367148 1.1434053e-38 302 270
-0.020805053 0.69800001 -0.0367148 1.1618444e-38 303 270
-0.019637333 0.69999999 -0.036819998 1.1803196e-38 304 270
-0.018436298 0.70099998 -0.036872596 1.1803196e-38 305 270
-0.017207211 0.70099998 -0.036872596 1.1343299e-38 306 270
-0.015978126 0.70099998 -0.036872596 1.1435854e-38 307 270
-0.014749039 0.70099998 -0.036872596 1.0884126e-38 308 270
-0.013500666 0.69999999 -0.036819998 1.1068157e-38 309 270
-0.012273333 0.69999999 -0.036819998 1.0883773e-38 310 270
-0.011061779 0.70099998 -0.036872596 1.0883773e-38 311 270
-0.0098326923 0.70099998 -0.036872596 1.1066725e-38 312 270
-0.0086036054 0.70099998 -0.036872596 1.1066725e-38 313 270
-0.0073955595 0.70300001 -0.036977798 1.0974527e-38 314 270
-0.0061629666 0.70300001 -0.036977798 1.0974527e-38 315 270
-0.0049303733 0.70300001 -0.036977798 1.0882328e-38 316 270
-0.0036977797 0.70300001 -0.036977798 1.0790131e-38 317 270
-0.0024651866 0.70300001 -0.036977798 1.0697933e-38 318 270
-0.0012325933 0.70300001 -0.036977798 1.0605737e-38 319 270
0 0.704 -0.037030395 1.0605734e-38 320 270
0.0012343467 0.704 -0.037030395 1.0513539e-38 321 270
0.0024686933 0.704 -0.037030395 1.0513173e-38 322 270
0.0037030398 0.704 -0.037030395 1.0420977e-38 323 270
0.0049373866 0.704 -0.037030395 1.0695402e-38 324 270
0.0061717331 0.704 -0.037030395 1.0602848e-38 325 270
0.0074060797 0.704 -0.037030395 1.0511371e-38 326 270
0.0086649731 0.70599997 -0.037135597 1.0511371e-38 327 270
0.0099028256 0.70599997 -0.037135597 1.0787965e-38 328 270
0.011156459 0.70700002 -0.037188202 1.1248942e-38 329 270
0.0124136 0.708 -0.0372408 1.14337e-38 330 270
0.013693533 0.70999998 -0.037345998 1.1618091e-38 331 270
0.014959441 0.71100003 -0.037398599 1.1893602e-38 332 270
0.016251646 0.713 -0.037503798 1.1986158e-38 333 270
0.017526319 0.71399999 -0.037556399 1.1986152e-38 334 270
0.0188308 0.71600002 -0.037661601 1.2078707e-38 335 270
0.020114239 0.71700001 -0.037714198 1.2629354e-38 336 270
0.021371379 0.71700001 -0.037714198 1.2444961e-38 337 270
0.02262852 0.71700001 -0.037714198 1.3180731e-38 338 270
0.023952285 0.71899998 -0.037819397 1.6591969e-38 339 270
0.025212931 0.71899998 -0.037819397 1.687145e-38 340 270
-0.044306733 0.722 -0.039243106 1.3919e-38 285 271
-0.043040827 0.722 -0.039243106 1.3276874e-38 286 271
-0.041774917 0.722 -0.039243106 1.3184679e-38 287 271
-0.040396802 0.72000003 -0.039134402 1.3182878e-38 288 271
-0.039134402 0.72000003 -0.039134402 1.2998485e-38 289 271
-0.037819397 0.71899998 -0.039080046 1.2540381e-38 290 271
-0.036558751 0.71899998 -0.039080046 1.2448185e-38 291 271
-0.034512613 0.70300001 -0.038210396 1.2264152e-38 292 271
-0.033280019 0.70300001 -0.038210396 1.2171956e-38 293 271
-0.032047424 0.70300001 -0.038210396 1.207976e-38 294 271
-0.030814834 0.70300001 -0.038210396 1.1895009e-38 295 271
-0.029582238 0.70300001 -0.038210396 1.2077608e-38 296 271
-0.028268991 0.70099998 -0.038101684 1.1985412e-38 297 271
-0.027039904 0.70099998 -0.038101684 1.1709193e-38 298 271
-0.025773998 0.69999999 -0.038047329 1.1616997e-38 299 271
-0.024546666 0.69999999 -0.038047329 1.1617002e-38 300 271
-0.023352645 0.70099998 -0.038101684 1.1524448e-38 301 271
-0.022091998 0.69999999 -0.038047329 1.1250741e-38 302 271
-0.020864666 0.69999999 -0.038047329 1.1435132e-38 303 271
-0.019721493 0.70300001 -0.038210396 1.1435848e-38 304 271
-0.018488899 0.70300001 -0.038210396 1.1528404e-38 305 271
-0.017256306 0.70300001 -0.038210396 1.1528048e-38 306 271
-0.016023712 0.70300001 -0.038210396 1.1528048e-38 307 271
-0.014791119 0.70300001 -0.038210396 1.1160709e-38 308 271
-0.013558527 0.70300001 -0.038210396 1.1160709e-38 309 271
-0.012325933 0.70300001 -0.038210396 1.1159637e-38 310 271
-0.011061779 0.70099998 -0.038101684 1.1067441e-38 311 271
-0.0098326923 0.70099998 -0.038101684 1.1067441e-38 312 271
-0.0086036054 0.70099998 -0.038101684 1.1067441e-38 313 271
-0.0073955595 0.70300001 -0.038210396 1.1066722e-38 314 271
-0.0061629666 0.70300001 -0.038210396 1.0974527e-38 315 271
-0.0049303733 0.70300001 -0.038210396 1.097488e-38 316 271
-0.0036977797 0.70300001 -0.038210396 1.0790128e-38 317 271
-0.0024651866 0.70300001 -0.038210396 1.0790484e-38 318 271
-0.0012325933 0.70300001 -0.038210396 1.069793e-38 319 271
0 0.704 -0.038264744 1.0422422e-38 320 271
0.0012343467 0.704 -0.038264744 1.0330227e-38 321 271
0.0024686933 0.704 -0.038264744 1.0420977e-38 322 271
0.0037030398 0.704 -0.038264744 1.032878e-38 323 271
0.0049373866 0.704 -0.038264744 1.0327337e-38 324 271
0.0061892662 0.70599997 -0.038373452 1.0327337e-38 325 271
0.0074271196 0.70599997 -0.038373452 1.0511727e-38 326 271
0.0086649731 0.70599997 -0.038373452 1.0327337e-38 327 271
0.0099168532 0.70700002 -0.038427804 1.0787965e-38 328 271
0.011156459 0.70700002 -0.038427804 1.1248942e-38 329 271
0.0124136 0.708 -0.038482159 1.1525896e-38 330 271
0.013693533 0.70999998 -0.038590867 1.1710646e-38 331 271
0.014959441 0.71100003 -0.038645219 1.1986155e-38 332 271
0.016251646 0.713 -0.038753927 1.1986155e-38 333 271
0.017575413 0.71600002 -0.038916986 1.2261663e-38 334 271
0.018857099 0.71700001 -0.038971342 1.2261663e-38 335 271
0.020198401 0.72000003 -0.039134402 1.2353846e-38 336 271
0.021520413 0.722 -0.039243106 1.2630073e-38 337 271
0.022786319 0.722 -0.039243106 1.4102689e-38 338 271
0.024085538 0.72299999 -0.039297458 1.6868558e-38 339 271
0.025353199 0.72299999 -0.039297458 1.6503389e-38 340 271
-0.044306733 0.722 -0.040509012 1.4563294e-38 285 272
-0.043040827 0.722 -0.040509012 1.3276874e-38 286 272
-0.041774917 0.722 -0.040509012 1.3276874e-38 287 272
-0.040396802 0.72000003 -0.040396802 1.3091411e-38 288 272
-0.039134402 0.72000003 -0.040396802 1.2999215e-38 289 272
-0.037661601 0.71600002 -0.040172372 1.2815539e-38 290 272
-0.036253672 0.713 -0.040004052 1.2631508e-38 291 272
-0.035003547 0.713 -0.040004052 1.2540031e-38 292 272
-0.033422034 0.70599997 -0.039611302 1.2447835e-38 293 272
-0.032093015 0.704 -0.039499093 1.2264164e-38 294 272
-0.030858666 0.704 -0.039499093 1.2171969e-38 295 272
-0.029624319 0.704 -0.039499093 1.1896461e-38 296 272
-0.028349647 0.70300001 -0.039442986 1.1712068e-38 297 272
-0.027117053 0.70300001 -0.039442986 1.1802113e-38 298 272
-0.025810819 0.70099998 -0.039330769 1.1618081e-38 299 272
-0.024581732 0.70099998 -0.039330769 1.1250388e-38 300 272
-0.023419274 0.70300001 -0.039442986 1.1065997e-38 301 272
-0.022123558 0.70099998 -0.039330769 1.1250388e-38 302 272
-0.020894472 0.70099998 -0.039330769 1.1434779e-38 303 272
-0.019721493 0.70300001 -0.039442986 1.1435854e-38 304 272
-0.018488899 0.70300001 -0.039442986 1.1528051e-38 305 272
-0.017256306 0.70300001 -0.039442986 1.161881e-38 306 272
-0.016023712 0.70300001 -0.039442986 1.1711366e-38 307 272
-0.014791119 0.70300001 -0.039442986 1.1252909e-38 308 272
-0.013558527 0.70300001 -0.039442986 1.1252909e-38 309 272
-0.012325933 0.70300001 -0.039442986 1.1160359e-38 310 272
-0.01109334 0.70300001 -0.039442986 1.1068163e-38 311 272
-0.0098607466 0.70300001 -0.039442986 1.1067807e-38 312 272
-0.0086281532 0.70300001 -0.039442986 1.0883776e-38 313 272
-0.0073955595 0.70300001 -0.039442986 1.0975246e-38 314 272
-0.0061629666 0.70300001 -0.039442986 1.0975246e-38 315 272
-0.0049303733 0.70300001 -0.039442986 1.0974524e-38 316 272
-0.0036977797 0.70300001 -0.039442986 1.0882328e-38 317 272
-0.0024651866 0.70300001 -0.039442986 1.0606816e-38 318 272
-0.0012325933 0.70300001 -0.039442986 1.0514621e-38 319 272
0 0.704 -0.039499093 1.0422778e-38 320 272
0.0012343467 0.704 -0.039499093 1.0145832e-38 321 272
0.0024686933 0.704 -0.039499093 1.042061e-38 322 272
0.0037030398 0.704 -0.039499093 1.0143665e-38 323 272
0.0049373866 0.704 -0.039499093 1.0511005e-38 324 272
0.0061892662 0.70599997 -0.039611302 1.041881e-38 325 272
0.0074271196 0.70599997 -0.039611302 1.0512807e-38 326 272
0.008677247 0.70700002 -0.039667413 1.0512807e-38 327 272
0.0099168532 0.70700002 -0.039667413 1.1157824e-38 328 272
0.01117224 0.708 -0.039723519 1.16188e-38 329 272
0.012448666 0.70999998 -0.039835732 1.1434779e-38 330 272
0.01371282 0.71100003 -0.039891839 1.161881e-38 331 272
0.014959441 0.71100003 -0.039891839 1.1802843e-38 332 272
0.016274439 0.71399999 -0.040060159 1.2079069e-38 333 272
0.017599959 0.71700001 -0.040228479 1.2170902e-38 334 272
0.018909698 0.71899998 -0.040340692 1.2170902e-38 335 272
0.020254506 0.722 -0.040509012 1.2261649e-38 336 272
0.021550218 0.72299999 -0.040565118 1.3460192e-38 337 272
0.02281788 0.72299999 -0.040565118 1.5392354e-38 338 272
0.024085538 0.72299999 -0.040565118 1.7051876e-38 339 272
0.025353199 0.72299999 -0.040565118 1.5859819e-38 340 272
-0.043040827 0.722 -0.041774917 1.3643855e-38 286 273
-0.041774917 0.722 -0.041774917 1.373605e-38 287 273
-0.040396802 0.72000003 -0.041659199 1.3367272e-38 288 273
-0.039134402 0.72000003 -0.041659199 1.3182881e-38 289 273
-0.037661601 0.71600002 -0.041427758 1.2815539e-38 290 273
-0.036253672 0.713 -0.041254178 1.2631508e-38 291 273
-0.035003547 0.713 -0.041254178 1.2539675e-38 292 273
-0.033611398 0.70999998 -0.041080594 1.2447479e-38 293 273
-0.032229774 0.70700002 -0.040907022 1.2447479e-38 294 273
-0.030946331 0.70599997 -0.040849157 1.2447479e-38 295 273
-0.029708479 0.70599997 -0.040849157 1.2540031e-38 296 273
-0.028389972 0.704 -0.040733438 1.217125e-38 297 273
-0.027155625 0.704 -0.040733438 1.2170172e-38 298 273
-0.02592128 0.704 -0.040733438 1.1986141e-38 299 273
-0.024686933 0.704 -0.040733438 1.1893589e-38 300 273
-0.023419274 0.70300001 -0.040675577 1.1801394e-38 301 273
-0.02218668 0.70300001 -0.040675577 1.1618091e-38 302 273
-0.020954086 0.70300001 -0.040675577 1.1525896e-38 303 273
-0.019749546 0.704 -0.040733438 1.1342233e-38 304 273
-0.018515198 0.704 -0.040733438 1.1434429e-38 305 273
-0.017280852 0.704 -0.040733438 1.1160359e-38 306 273
-0.016046507 0.704 -0.040733438 1.1160359e-38 307 273
-0.014812159 0.704 -0.040733438 1.1252556e-38 308 273
-0.013577812 0.704 -0.040733438 1.1252556e-38 309 273
-0.012343466 0.704 -0.040733438 1.1252556e-38 310 273
-0.01109334 0.70300001 -0.040675577 1.1160359e-38 311 273
-0.0098607466 0.70300001 -0.040675577 1.1343305e-38 312 273
-0.0086281532 0.70300001 -0.040675577 1.1343305e-38 313 273
-0.0074060797 0.704 -0.040733438 1.115999e-38 314 273
-0.0061717331 0.704 -0.040733438 1.0975599e-38 315 273
-0.0049303733 0.70300001 -0.040675577 1.0883047e-38 316 273
-0.0036977797 0.70300001 -0.040675577 1.0606819e-38 317 273
-0.0024651866 0.70300001 -0.040675577 1.069758e-38 318 273
-0.0012325933 0.70300001 -0.040675577 1.0605384e-38 319 273
0 0.704 -0.040733438 1.0605371e-38 320 273
0.0012343467 0.704 -0.040733438 1.0328424e-38 321 273
0.0024686933 0.704 -0.040733438 1.0602125e-38 322 273
0.0037030398 0.704 -0.040733438 1.0325539e-38 323 273
0.0049514128 0.70599997 -0.040849157 1.005075e-38 324 273
0.0061892662 0.70599997 -0.040849157 1.0603923e-38 325 273
0.0074376399 0.70700002 -0.040907022 1.069612e-38 326 273
0.008677247 0.70700002 -0.040907022 1.1249292e-38 327 273
0.0099308798 0.708 -0.040964879 1.1250738e-38 328 273
0.011203799 0.70999998 -0.041080594 1.1342934e-38 329 273
0.012448666 0.70999998 -0.041080594 1.161881e-38 330 273
0.01371282 0.71100003 -0.041138459 1.1711366e-38 331 273
0.014959441 0.71100003 -0.041138459 1.2170546e-38 332 273
0.016274439 0.71399999 -0.041312039 1.2262742e-38 333 273
0.017599959 0.71700001 -0.041485619 1.2446763e-38 334 273
0.018909698 0.71899998 -0.041601337 1.2446763e-38 335 273
0.020254506 0.722 -0.041774917 1.2629354e-38 336 273
0.021550218 0.72299999 -0.041832779 1.4473266e-38 337 273
0.02281788 0.72299999 -0.041832779 1.6040966e-38 338 273
0.024085538 0.72299999 -0.041832779 1.659414e-38 339 273
-0.043040827 0.722 -0.043040827 1.4288874e-38 286 274
-0.041774917 0.722 -0.043040827 1.3643504e-38 287 274
-0.040396802 0.72000003 -0.042921603 1.3275798e-38 288 274
-0.039134402 0.72000003 -0.042921603 1.2999212e-38 289 274
-0.037661601 0.71600002 -0.042683143 1.2632226e-38 290 274
-0.036406212 0.71600002 -0.042683143 1.2540031e-38 291 274
-0.035150826 0.71600002 -0.042683143 1.226417e-38 292 274
-0.033800758 0.71399999 -0.042563915 1.2171615e-38 293 274
-0.032412119 0.71100003 -0.042385083 1.244641e-38 294 274
-0.031034 0.708 -0.042206239 1.2538606e-38 295 274
-0.02979264 0.708 -0.042206239 1.2263461e-38 296 274
-0.028510952 0.70700002 -0.042146627 1.2171265e-38 297 274
-0.027232772 0.70599997 -0.042087011 1.2079067e-38 298 274
-0.025994917 0.70599997 -0.042087011 1.1986871e-38 299 274
-0.024757065 0.70599997 -0.042087011 1.1803559e-38 300 274
-0.023452586 0.704 -0.041967787 1.1803559e-38 301 274
-0.022218239 0.704 -0.041967787 1.1619166e-38 302 274
-0.020983893 0.704 -0.041967787 1.1435135e-38 303 274
-0.019805651 0.70599997 -0.042087011 1.1342586e-38 304 274
-0.018567799 0.70599997 -0.042087011 1.1342586e-38 305 274
-0.017329946 0.70599997 -0.042087011 1.1434426e-38 306 274
-0.016046507 0.704 -0.041967787 1.1618816e-38 307 274
-0.014812159 0.704 -0.041967787 1.1251835e-38 308 274
-0.013577812 0.704 -0.041967787 1.1435868e-38 309 274
-0.012343466 0.704 -0.041967787 1.1252556e-38 310 274
-0.011109119 0.704 -0.041967787 1.1252556e-38 311 274
-0.0098747732 0.704 -0.041967787 1.115964e-38 312 274
-0.0086404262 0.704 -0.041967787 1.1251835e-38 313 274
-0.0074060797 0.704 -0.041967787 1.106816e-38 314 274
-0.0061717331 0.704 -0.041967787 1.0791933e-38 315 274
-0.0049373866 0.704 -0.041967787 1.0883047e-38 316 274
-0.0037030398 0.704 -0.041967787 1.0606819e-38 317 274
-0.0024686933 0.704 -0.041967787 1.069793e-38 318 274
-0.0012343467 0.704 -0.041967787 1.0329508e-38 319 274
0 0.704 -0.041967787 1.0696838e-38 320 274
0.0012343467 0.704 -0.041967787 1.0328056e-38 321 274
0.0024686933 0.704 -0.041967787 1.0418091e-38 322 274
0.0037135598 0.70599997 -0.042087011 1.0602122e-38 323 274
0.0049584266 0.70700002 -0.042146627 1.0420257e-38 324 274
0.0061980332 0.70700002 -0.042146627 1.0788681e-38 325 274
0.0074376399 0.70700002 -0.042146627 1.1158189e-38 326 274
0.008689519 0.708 -0.042206239 1.1619166e-38 327 274
0.0099308798 0.708 -0.042206239 1.1343302e-38 328 274
0.011203799 0.70999998 -0.042325463 1.1435498e-38 329 274
0.0124662 0.71100003 -0.042385083 1.1711366e-38 330 274
0.01371282 0.71100003 -0.042385083 1.1803562e-38 331 274
0.015001519 0.713 -0.042504307 1.2171621e-38 332 274
0.016320027 0.71600002 -0.042683143 1.2263817e-38 333 274
0.017599959 0.71700001 -0.042742759 1.2447126e-38 334 274
0.018935999 0.72000003 -0.042921603 1.2447126e-38 335 274
0.020254506 0.722 -0.043040827 1.3366568e-38 336 274
0.021550218 0.72299999 -0.043100435 1.5395231e-38 337 274
0.02281788 0.72299999 -0.043100435 1.6134608e-38 338 274
0.024085538 0.72299999 -0.043100435 1.6134608e-38 339 274
-0.041774917 0.722 -0.044306733 1.3735703e-38 287 275
-0.040396802 0.72000003 -0.044183999 1.3091761e-38 288 275
-0.039080046 0.71899998 -0.044122629 1.2999566e-38 289 275
-0.037714198 0.71700001 -0.043999899 1.2815892e-38 290 275
-0.036457058 0.71700001 -0.043999899 1.2815892e-38 291 275
-0.035199918 0.71700001 -0.043999899 1.2264167e-38 292 275
-0.03389544 0.71600002 -0.043938532 1.2264167e-38 293 275
-0.032548878 0.71399999 -0.043815799 1.2263098e-38 294 275
-0.031165501 0.71100003 -0.043631699 1.2263098e-38 295 275
-0.02979264 0.708 -0.043447599 1.2262742e-38 296 275
-0.02855128 0.708 -0.043447599 1.2447132e-38 297 275
-0.027271347 0.70700002 -0.043386232 1.1988306e-38 298 275
-0.02603174 0.70700002 -0.043386232 1.2080502e-38 299 275
-0.024792133 0.70700002 -0.043386232 1.1988306e-38 300 275
-0.023519212 0.70599997 -0.043324865 1.189611e-38 301 275
-0.022281358 0.70599997 -0.043324865 1.1987227e-38 302 275
-0.021043506 0.70599997 -0.043324865 1.1803196e-38 303 275
-0.019805651 0.70599997 -0.043324865 1.1343305e-38 304 275
-0.018567799 0.70599997 -0.043324865 1.1251109e-38 305 275
-0.017329946 0.70599997 -0.043324865 1.1067444e-38 306 275
-0.016092092 0.70599997 -0.043324865 1.115964e-38 307 275
-0.014854239 0.70599997 -0.043324865 1.1160003e-38 308 275
-0.013577812 0.704 -0.043202132 1.1160003e-38 309 275
-0.012343466 0.704 -0.043202132 1.1160359e-38 310 275
-0.011109119 0.704 -0.043202132 1.1160359e-38 311 275
-0.0098747732 0.704 -0.043202132 1.1160356e-38 312 275
-0.0086404262 0.704 -0.043202132 1.106816e-38 313 275
-0.0074060797 0.704 -0.043202132 1.1159634e-38 314 275
-0.0061717331 0.704 -0.043202132 1.0975243e-38 315 275
-0.0049373866 0.704 -0.043202132 1.0790852e-38 316 275
-0.0037030398 0.704 -0.043202132 1.0514623e-38 317 275
-0.0024686933 0.704 -0.043202132 1.0605734e-38 318 275
-0.0012343467 0.704 -0.043202132 1.0329508e-38 319 275
0 0.70599997 -0.043324865 1.0512451e-38 320 275
0.0012378532 0.70599997 -0.043324865 1.0328059e-38 321 275
0.0024792133 0.70700002 -0.043386232 1.0511005e-38 322 275
0.0037188199 0.70700002 -0.043386232 1.0695397e-38 323 275
0.0049654399 0.708 -0.043447599 1.0697917e-38 324 275
0.0062067998 0.708 -0.043447599 1.1066699e-38 325 275
0.0074481601 0.708 -0.043447599 1.1343653e-38 326 275
0.008689519 0.708 -0.043447599 1.1251457e-38 327 275
0.0099589331 0.70999998 -0.043570329 1.1435854e-38 328 275
0.011203799 0.70999998 -0.043570329 1.1528051e-38 329 275
0.0124662 0.71100003 -0.043631699 1.1620246e-38 330 275
0.013751393 0.713 -0.043754432 1.1896473e-38 331 275
0.015022559 0.71399999 -0.043815799 1.2447126e-38 332 275
0.016342819 0.71700001 -0.043999899 1.2447126e-38 333 275
0.017649053 0.71899998 -0.044122629 1.2630801e-38 334 275
0.018935999 0.72000003 -0.044183999 1.2815193e-38 335 275
0.020254506 0.722 -0.044306733 1.36446e-38 336 275
0.021550218 0.72299999 -0.044368099 1.511973e-38 337 275
0.02281788 0.72299999 -0.044368099 1.5766904e-38 338 275
-0.041774917 0.722 -0.045572639 1.3920811e-38 287 276
-0.040396802 0.72000003 -0.045446403 1.3276148e-38 288 276
-0.039080046 0.71899998 -0.045383278 1.2907366e-38 289 276
-0.037819397 0.71899998 -0.045383278 1.2907366e-38 290 276
-0.036457058 0.71700001 -0.045257039 1.281517e-38 291 276
-0.035199918 0.71700001 -0.045257039 1.2356363e-38 292 276
-0.03389544 0.71600002 -0.045193922 1.2171971e-38 293 276
-0.032640055 0.71600002 -0.045193922 1.2171621e-38 294 276
-0.031253166 0.713 -0.045004558 1.2079067e-38 295 276
-0.029876797 0.70999998 -0.044815198 1.2170902e-38 296 276
-0.02855128 0.708 -0.044688959 1.2263098e-38 297 276
-0.027271347 0.70700002 -0.044625837 1.1988669e-38 298 276
-0.02603174 0.70700002 -0.044625837 1.2081223e-38 299 276
-0.024792133 0.70700002 -0.044625837 1.2263461e-38 300 276
-0.023519212 0.70599997 -0.044562716 1.2171265e-38 301 276
-0.022281358 0.70599997 -0.044562716 1.1895757e-38 302 276
-0.021043506 0.70599997 -0.044562716 1.1895757e-38 303 276
-0.019805651 0.70599997 -0.044562716 1.1527695e-38 304 276
-0.018567799 0.70599997 -0.044562716 1.1435498e-38 305 276
-0.017329946 0.70599997 -0.044562716 1.115999e-38 306 276
-0.016092092 0.70599997 -0.044562716 1.115999e-38 307 276
-0.014854239 0.70599997 -0.044562716 1.115964e-38 308 276
-0.013616386 0.70599997 -0.044562716 1.1251835e-38 309 276
-0.012378532 0.70599997 -0.044562716 1.1160003e-38 310 276
-0.011109119 0.704 -0.044436477 1.1160003e-38 311 276
-0.0098747732 0.704 -0.044436477 1.115964e-38 312 276
-0.0086649731 0.70599997 -0.044562716 1.1251835e-38 313 276
-0.0074271196 0.70599997 -0.044562716 1.1067438e-38 314 276
-0.0061892662 0.70599997 -0.044562716 1.0883047e-38 315 276
-0.0049514128 0.70599997 -0.044562716 1.0607537e-38 316 276
-0.0037030398 0.704 -0.044436477 1.0423144e-38 317 276
-0.0024686933 0.704 -0.044436477 1.0514618e-38 318 276
-0.0012378532 0.70599997 -0.044562716 1.0422422e-38 319 276
0 0.70700002 -0.044625837 1.0698283e-38 320 276
0.0012396066 0.70700002 -0.044625837 1.0513892e-38 321 276
0.0024792133 0.70700002 -0.044625837 1.0606441e-38 322 276
0.0037188199 0.70700002 -0.044625837 1.0698636e-38 323 276
0.0049654399 0.708 -0.044688959 1.0883753e-38 324 276
0.0062067998 0.708 -0.044688959 1.1068145e-38 325 276
0.0074481601 0.708 -0.044688959 1.1067792e-38 326 276
0.008689519 0.708 -0.044688959 1.1159987e-38 327 276
0.0099589331 0.70999998 -0.044815198 1.1528051e-38 328 276
0.01121958 0.71100003 -0.044878319 1.1620246e-38 329 276
0.012501267 0.713 -0.045004558 1.1712442e-38 330 276
0.01377068 0.71399999 -0.045067675 1.1896473e-38 331 276
0.01506464 0.71600002 -0.045193922 1.244641e-38 332 276
0.016342819 0.71700001 -0.045257039 1.244641e-38 333 276
0.017673599 0.72000003 -0.045446403 1.244641e-38 334 276
0.018935999 0.72000003 -0.045446403 1.2907388e-38 335 276
0.020254506 0.722 -0.045572639 1.3553486e-38 336 276
0.021550218 0.72299999 -0.04563576 1.4659475e-38 337 276
0.02281788 0.72299999 -0.04563576 1.5122254e-38 338 276
-0.040396802 0.72000003 -0.0467088 1.4104114e-38 288 277
-0.039134402 0.72000003 -0.0467088 1.3458744e-38 289 277
-0.037819397 0.71899998 -0.046643924 1.2999922e-38 290 277
-0.036558751 0.71899998 -0.046643924 1.281517e-38 291 277
-0.035298105 0.71899998 -0.046643924 1.2263445e-38 292 277
-0.03403746 0.71899998 -0.046643924 1.217125e-38 293 277
-0.032685637 0.71700001 -0.046514176 1.2078701e-38 294 277
-0.031296998 0.71399999 -0.046319555 1.2078701e-38 295 277
-0.029876797 0.70999998 -0.046060063 1.207942e-38 296 277
-0.02855128 0.708 -0.045930319 1.226417e-38 297 277
-0.027309919 0.708 -0.045930319 1.2264533e-38 298 277
-0.026068559 0.708 -0.045930319 1.2264533e-38 299 277
-0.024827199 0.708 -0.045930319 1.2080148e-38 300 277
-0.023552528 0.70700002 -0.045865446 1.2080148e-38 301 277
-0.022312919 0.70700002 -0.045865446 1.1896476e-38 302 277
-0.021073313 0.70700002 -0.045865446 1.1896476e-38 303 277
-0.019833706 0.70700002 -0.045865446 1.1528051e-38 304 277
-0.018594101 0.70700002 -0.045865446 1.1528051e-38 305 277
-0.017354494 0.70700002 -0.045865446 1.1252903e-38 306 277
-0.016114887 0.70700002 -0.045865446 1.1252903e-38 307 277
-0.014854239 0.70599997 -0.04580057 1.1160353e-38 308 277
-0.013616386 0.70599997 -0.04580057 1.1160353e-38 309 277
-0.012378532 0.70599997 -0.04580057 1.1251833e-38 310 277
-0.011140679 0.70599997 -0.04580057 1.1159637e-38 311 277
-0.0099028256 0.70599997 -0.04580057 1.1251109e-38 312 277
-0.0086649731 0.70599997 -0.04580057 1.1251109e-38 313 277
-0.0074271196 0.70599997 -0.04580057 1.097488e-38 314 277
-0.0061892662 0.70599997 -0.04580057 1.0882326e-38 315 277
-0.0049514128 0.70599997 -0.04580057 1.0791205e-38 316 277
-0.0037135598 0.70599997 -0.04580057 1.0606813e-38 317 277
-0.0024757064 0.70599997 -0.04580057 1.0791202e-38 318 277
-0.0012396066 0.70700002 -0.045865446 1.0791202e-38 319 277
0 0.708 -0.045930319 1.0700082e-38 320 277
0.00124136 0.708 -0.045930319 1.0607887e-38 321 277
0.00248272 0.708 -0.045930319 1.0791555e-38 322 277
0.00372408 0.708 -0.045930319 1.0883751e-38 323 277
0.0049794666 0.70999998 -0.046060063 1.1067426e-38 324 277
0.0062243328 0.70999998 -0.046060063 1.1251457e-38 325 277
0.0074691991 0.70999998 -0.046060063 1.1251104e-38 326 277
0.0087140659 0.70999998 -0.046060063 1.1343299e-38 327 277
0.0099589331 0.70999998 -0.046060063 1.1528051e-38 328 277
0.01121958 0.71100003 -0.046124939 1.1620246e-38 329 277
0.012518799 0.71399999 -0.046319555 1.2171618e-38 330 277
0.013809253 0.71600002 -0.046449307 1.2171618e-38 331 277
0.015085679 0.71700001 -0.046514176 1.2447129e-38 332 277
0.016388407 0.71899998 -0.046643924 1.2170902e-38 333 277
0.017673599 0.72000003 -0.0467088 1.2078353e-38 334 277
0.0189886 0.722 -0.046838548 1.2446776e-38 335 277
0.020254506 0.722 -0.046838548 1.3185427e-38 336 277
0.021550218 0.72299999 -0.046903417 1.4291414e-38 337 277
-0.039080046 0.71899998 -0.04790457 1.3459823e-38 289 278
-0.037714198 0.71700001 -0.04777132 1.2907369e-38 290 278
-0.036457058 0.71700001 -0.04777132 1.2722977e-38 291 278
-0.035298105 0.71899998 -0.04790457 1.2171252e-38 292 278
-0.034084801 0.72000003 -0.0479712 1.2079057e-38 293 278
-0.032776814 0.71899998 -0.04790457 1.1803193e-38 294 278
-0.031296998 0.71399999 -0.047571439 1.1987224e-38 295 278
-0.029918881 0.71100003 -0.047371563 1.1987224e-38 296 278
-0.028631933 0.70999998 -0.047304932 1.2171615e-38 297 278
-0.027309919 0.708 -0.047171678 1.2080502e-38 298 278
-0.026068559 0.708 -0.047171678 1.2080502e-38 299 278
-0.024827199 0.708 -0.047171678 1.2264533e-38 300 278
-0.023585839 0.708 -0.047171678 1.2080502e-38 301 278
-0.022344479 0.708 -0.047171678 1.198795e-38 302 278
-0.021103119 0.708 -0.047171678 1.1895754e-38 303 278
-0.01986176 0.708 -0.047171678 1.1620246e-38 304 278
-0.0186204 0.708 -0.047171678 1.1620246e-38 305 278
-0.017379038 0.708 -0.047171678 1.152877e-38 306 278
-0.016114887 0.70700002 -0.047105055 1.1436574e-38 307 278
-0.01487528 0.70700002 -0.047105055 1.1436218e-38 308 278
-0.013635674 0.70700002 -0.047105055 1.1436218e-38 309 278
-0.012378532 0.70599997 -0.047038425 1.115999e-38 310 278
-0.011140679 0.70599997 -0.047038425 1.1067794e-38 311 278
-0.0099028256 0.70599997 -0.047038425 1.1342586e-38 312 278
-0.0086649731 0.70599997 -0.047038425 1.1157836e-38 313 278
-0.0074271196 0.70599997 -0.047038425 1.1158192e-38 314 278
-0.0061892662 0.70599997 -0.047038425 1.0973441e-38 315 278
-0.0049514128 0.70599997 -0.047038425 1.0606813e-38 316 278
-0.0037188199 0.70700002 -0.047105055 1.0606813e-38 317 278
-0.0024792133 0.70700002 -0.047105055 1.0607534e-38 318 278
-0.00124136 0.708 -0.047171678 1.0607534e-38 319 278
0 0.70999998 -0.047304932 1.0607534e-38 320 278
0.0012448666 0.70999998 -0.047304932 1.0607534e-38 321 278
0.0024897333 0.70999998 -0.047304932 1.08834e-38 322 278
0.0037345996 0.70999998 -0.047304932 1.08834e-38 323 278
0.0049794666 0.70999998 -0.047304932 1.097488e-38 324 278
0.0062243328 0.70999998 -0.047304932 1.1067076e-38 325 278
0.0074797203 0.71100003 -0.047371563 1.1251107e-38 326 278
0.0087263398 0.71100003 -0.047371563 1.1435498e-38 327 278
0.0099729598 0.71100003 -0.047371563 1.1528051e-38 328 278
0.011251139 0.713 -0.047504812 1.1620246e-38 329 278
0.012553867 0.71600002 -0.047704693 1.1895757e-38 330 278
0.013809253 0.71600002 -0.047704693 1.1895757e-38 331 278
0.015085679 0.71700001 -0.04777132 1.1987956e-38 332 278
0.016388407 0.71899998 -0.04790457 1.1803206e-38 333 278
0.017673599 0.72000003 -0.0479712 1.115712e-38 334 278
0.018935999 0.72000003 -0.0479712 1.1433347e-38 335 278
0.020254506 0.722 -0.048104454 1.2632975e-38 336 278
-0.037714198 0.71700001 -0.04902846 1.3090328e-38 290 279
-0.036457058 0.71700001 -0.04902846 1.2537514e-38 291 279
-0.035298105 0.71899998 -0.049165215 1.2170169e-38 292 279
-0.034084801 0.72000003 -0.0492336 1.2170169e-38 293 279
-0.032776814 0.71899998 -0.049165215 1.2170169e-38 294 279
-0.031428497 0.71700001 -0.04902846 1.1986138e-38 295 279
-0.030045118 0.71399999 -0.048823316 1.2170172e-38 296 279
-0.028672259 0.71100003 -0.048618179 1.2262369e-38 297 279
-0.027387066 0.70999998 -0.048549797 1.2171615e-38 298 279
-0.026142199 0.70999998 -0.048549797 1.226417e-38 299 279
-0.024897331 0.70999998 -0.048549797 1.1988303e-38 300 279
-0.023585839 0.708 -0.048413038 1.1988303e-38 301 279
-0.022344479 0.708 -0.048413038 1.1712442e-38 302 279
-0.021103119 0.708 -0.048413038 1.1712442e-38 303 279
-0.019917866 0.70999998 -0.048549797 1.1803559e-38 304 279
-0.0186204 0.708 -0.048413038 1.1803559e-38 305 279
-0.017379038 0.708 -0.048413038 1.1620246e-38 306 279
-0.01613768 0.708 -0.048413038 1.1528051e-38 307 279
-0.01487528 0.70700002 -0.048344657 1.1436218e-38 308 279
-0.013635674 0.70700002 -0.048344657 1.1436218e-38 309 279
-0.012396066 0.70700002 -0.048344657 1.115999e-38 310 279
-0.011156459 0.70700002 -0.048344657 1.115999e-38 311 279
-0.0099168532 0.70700002 -0.048344657 1.106672e-38 312 279
-0.008677247 0.70700002 -0.048344657 1.0974524e-38 313 279
-0.0074376399 0.70700002 -0.048344657 1.0790128e-38 314 279
-0.0061980332 0.70700002 -0.048344657 1.0790128e-38 315 279
-0.0049584266 0.70700002 -0.048344657 1.0514618e-38 316 279
-0.00372408 0.708 -0.048413038 1.0514618e-38 317 279
-0.00248272 0.708 -0.048413038 1.0790484e-38 318 279
-0.0012448666 0.70999998 -0.048549797 1.0790484e-38 319 279
0 0.70999998 -0.048549797 1.1065276e-38 320 279
0.00124662 0.71100003 -0.048618179 1.1157473e-38 321 279
0.0024932399 0.71100003 -0.048618179 1.1065641e-38 322 279
0.0037398601 0.71100003 -0.048618179 1.1065641e-38 323 279
0.0049864799 0.71100003 -0.048618179 1.1157473e-38 324 279
0.0062330998 0.71100003 -0.048618179 1.1341504e-38 325 279
0.0074797203 0.71100003 -0.048618179 1.1434056e-38 326 279
0.0087263398 0.71100003 -0.048618179 1.1618447e-38 327 279
0.010001013 0.713 -0.048754938 1.1711363e-38 328 279
