# .PCD v.7 - Point Cloud Data file format
FIELDS x y z rgb imX imY
SIZE 4 4 4 4 4 4
TYPE F F F F F F
COUNT 1 1 1 1 1 1
WIDTH 836
HEIGHT 1
VIEWPOINT 0 0 0 1 0 0 0
POINTS 836
DATA ascii
0.028873893 0.71600002 -0.026363119 9.6740938e-39 343 261
0 0.71700001 -0.027657079 1.7416673e-38 320 262
0.00125714 0.71700001 -0.027657079 1.3821045e-38 321 262
0.0025142799 0.71700001 -0.027657079 1.3339186e-38 322 262
0.00376616 0.71600002 -0.027618507 1.2232838e-38 323 262
0.0050215465 0.71600002 -0.027618507 1.1129732e-38 324 262
0.0062769335 0.71600002 -0.027618507 1.0392165e-38 325 262
0.0075112795 0.71399999 -0.02754136 8.6494531e-39 326 262
0.0087631596 0.71399999 -0.02754136 8.5572575e-39 327 262
0.01001504 0.71399999 -0.02754136 8.1016869e-39 328 262
0.011266919 0.71399999 -0.02754136 8.1938826e-39 329 262
0.012501267 0.713 -0.027502786 8.6516363e-39 330 262
0.013751393 0.713 -0.027502786 8.6516363e-39 331 262
0.015022559 0.71399999 -0.02754136 9.018628e-39 332 262
0.016274439 0.71399999 -0.02754136 9.2955736e-39 333 262
0.017526319 0.71399999 -0.02754136 9.5728808e-39 334 262
0.018778199 0.71399999 -0.02754136 1.0587031e-38 335 262
0.020030079 0.71399999 -0.02754136 1.3159856e-38 336 262
0.021281958 0.71399999 -0.02754136 1.3067659e-38 337 262
0.022533838 0.71399999 -0.02754136 1.2699581e-38 338 262
0.023852346 0.71600002 -0.027618507 1.2330439e-38 339 262
0.025107734 0.71600002 -0.027618507 1.1134069e-38 340 262
0.026289478 0.71399999 -0.02754136 1.0212114e-38 341 262
0.02754136 0.71399999 -0.02754136 8.6487721e-39 342 262
0.028873893 0.71600002 -0.027618507 8.0034027e-39 343 262
0.03012928 0.71600002 -0.027618507 6.2553179e-39 344 262
-0.00125714 0.71700001 -0.028914221 1.6222098e-38 319 263
0 0.71700001 -0.028914221 1.4824746e-38 320 263
0.00125714 0.71700001 -0.028914221 1.3165226e-38 321 263
0.0025142799 0.71700001 -0.028914221 1.2605937e-38 322 263
0.00376616 0.71600002 -0.028873893 1.1776176e-38 323 263
0.0050075199 0.71399999 -0.028793238 1.0856753e-38 324 263
0.0062593995 0.71399999 -0.028793238 1.0211384e-38 325 263
0.0075112795 0.71399999 -0.028793238 8.6512706e-39 326 263
0.0087508867 0.713 -0.028752912 8.7434662e-39 327 263
0.010001013 0.713 -0.028752912 8.3761284e-39 328 263
0.011251139 0.713 -0.028752912 8.0999017e-39 329 263
0.012501267 0.713 -0.028752912 8.2821392e-39 330 263
0.013751393 0.713 -0.028752912 8.2821392e-39 331 263
0.015022559 0.71399999 -0.028793238 8.8324417e-39 332 263
0.016274439 0.71399999 -0.028793238 9.2012228e-39 333 263
0.017526319 0.71399999 -0.028793238 9.9369872e-39 334 263
0.018778199 0.71399999 -0.028793238 1.0951499e-38 335 263
0.020030079 0.71399999 -0.028793238 1.2792867e-38 336 263
0.021281958 0.71399999 -0.028793238 1.297726e-38 337 263
0.022533838 0.71399999 -0.028793238 1.3436064e-38 338 263
0.02378572 0.71399999 -0.028793238 1.2053129e-38 339 263
0.025037598 0.71399999 -0.028793238 1.0858558e-38 340 263
0.026289478 0.71399999 -0.028793238 1.0489776e-38 341 263
0.02754136 0.71399999 -0.028793238 9.6621827e-39 342 263
0.028793238 0.71399999 -0.028793238 9.2012046e-39 343 263
0.030045118 0.71399999 -0.028793238 8.0055537e-39 344 263
0.031296998 0.71399999 -0.028793238 7.1754343e-39 345 263
0.032548878 0.71399999 -0.028793238 4.887488e-39 346 263
-0.0025107733 0.71600002 -0.03012928 1.5939394e-38 318 264
-0.0012553866 0.71600002 -0.03012928 1.2435961e-38 319 264
0 0.71600002 -0.03012928 1.3158755e-38 320 264
0.0012553866 0.71600002 -0.03012928 1.34357e-38 321 264
0.0025107733 0.71600002 -0.03012928 1.2793215e-38 322 264
0.0037556398 0.71399999 -0.030045118 1.1779423e-38 323 264
0.0050075199 0.71399999 -0.030045118 9.9405647e-39 324 264
0.0062593995 0.71399999 -0.030045118 9.3873909e-39 325 264
0.0075007593 0.713 -0.030003037 8.5608728e-39 326 264
0.0087508867 0.713 -0.030003037 8.0998961e-39 327 264
0.010001013 0.713 -0.030003037 8.0080564e-39 328 264
0.011251139 0.713 -0.030003037 7.9155006e-39 329 264
0.012501267 0.713 -0.030003037 8.5562009e-39 330 264
0.013751393 0.713 -0.030003037 8.4640053e-39 331 264
0.015001519 0.713 -0.030003037 9.1065048e-39 332 264
0.016251646 0.713 -0.030003037 9.2912548e-39 333 264
0.017501773 0.713 -0.030003037 9.9341005e-39 334 264
0.018751899 0.713 -0.030003037 1.0856055e-38 335 264
0.020002026 0.713 -0.030003037 1.1596126e-38 336 264
0.021252153 0.713 -0.030003037 1.2241495e-38 337 264
0.022502279 0.713 -0.030003037 1.3160208e-38 338 264
0.02378572 0.71399999 -0.030045118 1.1961666e-38 339 264
0.025002534 0.713 -0.030003037 1.0950754e-38 340 264
0.026252659 0.713 -0.030003037 1.0673808e-38 341 264
0.027502786 0.713 -0.030003037 1.0398302e-38 342 264
0.028793238 0.71399999 -0.030045118 1.0398302e-38 343 264
0.030045118 0.71399999 -0.030045118 1.030683e-38 344 264
0.031253166 0.713 -0.030003037 1.0030242e-38 345 264
0.032503292 0.713 -0.030003037 7.3648534e-39 346 264
0.033753417 0.713 -0.030003037 7.272299e-39 347 264
0.035003547 0.713 -0.030003037 5.3563695e-39 348 264
-0.0037503797 0.713 -0.031253166 1.4007978e-38 317 265
-0.0025107733 0.71600002 -0.031384666 1.3899569e-38 318 265
-0.0012553866 0.71600002 -0.031384666 1.2516635e-38 319 265
0 0.71600002 -0.031384666 1.2788533e-38 320 265
0.00125188 0.71399999 -0.031296998 1.2235359e-38 321 265
0.0025037599 0.71399999 -0.031296998 1.0123863e-38 322 265
0.0037503797 0.713 -0.031253166 9.8472774e-39 323 265
0.0050005065 0.713 -0.031253166 8.5626749e-39 324 265
0.0062506334 0.713 -0.031253166 8.2857279e-39 325 265
0.0074797203 0.71100003 -0.031165501 7.7318394e-39 326 265
0.0087263398 0.71100003 -0.031165501 7.4552511e-39 327 265
0.0099729598 0.71100003 -0.031165501 7.9137056e-39 328 265
0.01121958 0.71100003 -0.031165501 8.0059012e-39 329 265
0.0124662 0.71100003 -0.031165501 8.6469518e-39 330 265
0.01371282 0.71100003 -0.031165501 8.6469518e-39 331 265
0.014959441 0.71100003 -0.031165501 9.2890842e-39 332 265
0.01620606 0.71100003 -0.031165501 9.4731153e-39 333 265
0.01745268 0.71100003 -0.031165501 1.0023408e-38 334 265
0.0186993 0.71100003 -0.031165501 1.085317e-38 335 265
0.01994592 0.71100003 -0.031165501 1.1408492e-38 336 265
0.021192541 0.71100003 -0.031165501 1.2514838e-38 337 265
0.022439159 0.71100003 -0.031165501 1.2517351e-38 338 265
0.023752406 0.713 -0.031253166 1.168759e-38 339 265
0.025002534 0.713 -0.031253166 1.1134419e-38 340 265
0.026252659 0.713 -0.031253166 1.1042223e-38 341 265
0.027502786 0.713 -0.031253166 1.0490849e-38 342 265
0.028752912 0.713 -0.031253166 1.0583045e-38 343 265
0.030003037 0.713 -0.031253166 1.0491571e-38 344 265
0.031253166 0.713 -0.031253166 1.0583766e-38 345 265
0.032503292 0.713 -0.031253166 9.9405619e-39 346 265
0.033753417 0.713 -0.031253166 1.0217507e-38 347 265
0.035003547 0.713 -0.031253166 9.8530732e-39 348 265
0.036304519 0.71399999 -0.031296998 1.1328562e-38 349 265
-0.0050005065 0.713 -0.032503292 1.6121968e-38 316 266
-0.0037503797 0.713 -0.032503292 1.1880969e-38 317 266
-0.0025002533 0.713 -0.032503292 1.2607383e-38 318 266
-0.0012501266 0.713 -0.032503292 1.242299e-38 319 266
0 0.71100003 -0.032412119 1.0857839e-38 320 266
0.0012448666 0.70999998 -0.032366529 1.0396501e-38 321 266
0.0024897333 0.70999998 -0.032366529 9.6639778e-39 322 266
0.00372408 0.708 -0.03227536 9.7565322e-39 323 266
0.0049584266 0.70700002 -0.032229774 9.4817403e-39 324 266
0.0061980332 0.70700002 -0.032229774 9.2047947e-39 325 266
0.0074376399 0.70700002 -0.032229774 8.6519712e-39 326 266
0.0087140659 0.70999998 -0.032366529 8.2835489e-39 327 266
0.0099589331 0.70999998 -0.032366529 8.7412788e-39 328 266
0.011203799 0.70999998 -0.032366529 8.8334744e-39 329 266
0.0124662 0.71100003 -0.032412119 9.8418656e-39 330 266
0.01371282 0.71100003 -0.032412119 9.8418656e-39 331 266
0.014959441 0.71100003 -0.032412119 1.0115583e-38 332 266
0.01620606 0.71100003 -0.032412119 1.0115583e-38 333 266
0.01745268 0.71100003 -0.032412119 1.0390743e-38 334 266
0.018672999 0.70999998 -0.032366529 1.1128309e-38 335 266
0.019917866 0.70999998 -0.032366529 1.0489781e-38 336 266
0.021192541 0.71100003 -0.032412119 1.1135151e-38 337 266
0.022439159 0.71100003 -0.032412119 1.0860356e-38 338 266
0.023685781 0.71100003 -0.032412119 1.076816e-38 339 266
0.025002534 0.713 -0.032503292 1.1133697e-38 340 266
0.026179021 0.71100003 -0.032412119 1.1041502e-38 341 266
0.027425639 0.71100003 -0.032412119 1.0767066e-38 342 266
0.028752912 0.713 -0.032503292 1.0767066e-38 343 266
0.030003037 0.713 -0.032503292 1.1042577e-38 344 266
0.031253166 0.713 -0.032503292 1.1134772e-38 345 266
0.032503292 0.713 -0.032503292 1.1319178e-38 346 266
0.033753417 0.713 -0.032503292 1.1780514e-38 347 266
0.035052639 0.71399999 -0.032548878 1.1690133e-38 348 266
0.036304519 0.71399999 -0.032548878 1.113696e-38 349 266
0.037556399 0.71399999 -0.032548878 8.6696528e-39 350 266
-0.0062506334 0.713 -0.033753417 1.2166583e-38 315 267
-0.0050005065 0.713 -0.033753417 1.3800539e-38 316 267
-0.0037398601 0.71100003 -0.033658739 1.2878224e-38 317 267
-0.0024932399 0.71100003 -0.033658739 1.1779791e-38 318 267
-0.00124662 0.71100003 -0.033658739 1.1226618e-38 319 267
0 0.70999998 -0.033611398 8.7456186e-39 320 267
0.00124136 0.708 -0.033516716 9.1143997e-39 321 267
0.00248272 0.708 -0.033516716 9.6650526e-39 322 267
0.0037188199 0.70700002 -0.033469379 9.9416409e-39 323 267
0.0049514128 0.70599997 -0.033422034 1.0035627e-38 324 267
0.0061892662 0.70599997 -0.033422034 1.0035627e-38 325 267
0.0074271196 0.70599997 -0.033422034 1.0220009e-38 326 267
0.0086649731 0.70599997 -0.033422034 1.0035259e-38 327 267
0.0099028256 0.70599997 -0.033422034 9.7579489e-39 328 267
0.011140679 0.70599997 -0.033422034 9.6657532e-39 329 267
0.012448666 0.70999998 -0.033611398 1.0858192e-38 330 267
0.013693533 0.70999998 -0.033611398 1.0765638e-38 331 267
0.014938398 0.70999998 -0.033611398 1.1040433e-38 332 267
0.016183265 0.70999998 -0.033611398 1.1040433e-38 333 267
0.017379038 0.708 -0.033516716 1.0948953e-38 334 267
0.018567799 0.70599997 -0.033422034 1.0856756e-38 335 267
0.019805651 0.70599997 -0.033422034 1.0490129e-38 336 267
0.021073313 0.70700002 -0.033469379 1.0305737e-38 337 267
0.022344479 0.708 -0.033516716 1.039506e-38 338 267
0.023652466 0.70999998 -0.033611398 1.057945e-38 339 267
0.024897331 0.70999998 -0.033611398 1.0580526e-38 340 267
0.026142199 0.70999998 -0.033611398 1.0856753e-38 341 267
0.027425639 0.71100003 -0.033658739 1.1223731e-38 342 267
0.028672259 0.71100003 -0.033658739 1.1407762e-38 343 267
0.030003037 0.713 -0.033753417 1.1682554e-38 344 267
0.031253166 0.713 -0.033753417 1.1866946e-38 345 267
0.032503292 0.713 -0.033753417 1.1867312e-38 346 267
0.033753417 0.713 -0.033753417 1.2236455e-38 347 267
0.035052639 0.71399999 -0.033800758 1.2329738e-38 348 267
0.036304519 0.71399999 -0.033800758 1.2145707e-38 349 267
0.037661601 0.71600002 -0.03389544 9.2123897e-39 350 267
-0.0075007593 0.713 -0.035003547 1.5943362e-38 314 268
-0.0062506334 0.713 -0.035003547 1.0411622e-38 315 268
-0.0050005065 0.713 -0.035003547 1.1596839e-38 316 268
-0.0037503797 0.713 -0.035003547 1.1596839e-38 317 268
-0.0024932399 0.71100003 -0.034905359 1.0401546e-38 318 268
-0.0012448666 0.70999998 -0.034856264 1.0032763e-38 319 268
0 0.708 -0.034758076 8.8385387e-39 320 268
0.0012378532 0.70599997 -0.034659892 8.9307344e-39 321 268
0.0024757064 0.70599997 -0.034659892 8.563028e-39 322 268
0.0037135598 0.70599997 -0.034659892 8.8392548e-39 323 268
0.0049373866 0.704 -0.034561705 9.4817403e-39 324 268
0.0061717331 0.704 -0.034561705 9.7579685e-39 325 268
0.0074060797 0.704 -0.034561705 1.0401523e-38 326 268
0.0086404262 0.704 -0.034561705 1.0493719e-38 327 268
0.0098747732 0.704 -0.034561705 1.0676312e-38 328 268
0.011109119 0.704 -0.034561705 1.0676312e-38 329 268
0.012325933 0.70300001 -0.034512613 1.1135501e-38 330 268
0.013558527 0.70300001 -0.034512613 1.1319533e-38 331 268
0.01489632 0.708 -0.034758076 1.1594322e-38 332 268
0.016114887 0.70700002 -0.034708988 1.1686518e-38 333 268
0.017329946 0.70599997 -0.034659892 1.187089e-38 334 268
0.018515198 0.704 -0.034561705 1.187089e-38 335 268
0.019721493 0.70300001 -0.034512613 1.1780123e-38 336 268
0.020894472 0.70099998 -0.034414422 1.1687928e-38 337 268
0.022123558 0.70099998 -0.034414422 1.1869448e-38 338 268
0.023419274 0.70300001 -0.034512613 1.1777252e-38 339 268
0.024757065 0.70599997 -0.034659892 1.1685054e-38 340 268
0.025994917 0.70599997 -0.034659892 1.1500662e-38 341 268
0.027309919 0.708 -0.034758076 1.1775454e-38 342 268
0.028631933 0.70999998 -0.034856264 1.186765e-38 343 268
0.029918881 0.71100003 -0.034905359 1.2142808e-38 344 268
0.031165501 0.71100003 -0.034905359 1.2142808e-38 345 268
0.032412119 0.71100003 -0.034905359 1.2509445e-38 346 268
0.033753417 0.713 -0.035003547 1.2786032e-38 347 268
0.035003547 0.713 -0.035003547 1.2329019e-38 348 268
0.036304519 0.71399999 -0.035052639 1.2421215e-38 349 268
0.037556399 0.71399999 -0.035052639 1.0862539e-38 350 268
0.038808275 0.71399999 -0.035052639 1.1231682e-38 351 268
-0.0062330998 0.71100003 -0.036151983 1.022436e-38 315 269
-0.0049864799 0.71100003 -0.036151983 1.1050502e-38 316 269
-0.0037398601 0.71100003 -0.036151983 1.0036711e-38 317 269
-0.00248272 0.708 -0.03599944 9.2069597e-39 318 269
-0.00124136 0.708 -0.03599944 8.8385359e-39 319 269
0 0.70700002 -0.035948593 8.6530727e-39 320 269
0.0012343467 0.704 -0.035796054 8.5608756e-39 321 269
0.0024686933 0.704 -0.035796054 8.8356647e-39 322 269
0.0037030398 0.704 -0.035796054 8.9278617e-39 323 269
0.0049373866 0.704 -0.035796054 9.4792334e-39 324 269
0.0061629666 0.70300001 -0.035745207 9.4792334e-39 325 269
0.0073955595 0.70300001 -0.035745207 9.8472929e-39 326 269
0.0085913334 0.69999999 -0.035592664 9.9394885e-39 327 269
0.0098186666 0.69999999 -0.035592664 1.0582697e-38 328 269
0.011061779 0.70099998 -0.035643511 1.0858924e-38 329 269
0.012238266 0.69800001 -0.035490975 1.131918e-38 330 269
0.013462093 0.69800001 -0.035490975 1.1503572e-38 331 269
0.014727999 0.69999999 -0.035592664 1.1964533e-38 332 269
0.015886955 0.69700003 -0.035440128 1.2148926e-38 333 269
0.017109027 0.69700003 -0.035440128 1.2150351e-38 334 269
0.018409999 0.69999999 -0.035592664 1.2150351e-38 335 269
0.019637333 0.69999999 -0.035592664 1.2425859e-38 336 269
0.020864666 0.69999999 -0.035592664 1.2610609e-38 337 269
0.022091998 0.69999999 -0.035592664 1.3529319e-38 338 269
0.023319334 0.69999999 -0.035592664 1.3805906e-38 339 269
0.024581732 0.70099998 -0.035643511 1.2793187e-38 340 269
0.025810819 0.70099998 -0.035643511 1.251624e-38 341 269
0.027117053 0.70300001 -0.035745207 1.2147467e-38 342 269
0.028349647 0.70300001 -0.035745207 1.2054912e-38 343 269
0.02979264 0.708 -0.03599944 1.1962367e-38 344 269
0.031034 0.708 -0.03599944 1.1870169e-38 345 269
0.032366529 0.70999998 -0.036101133 1.2603786e-38 346 269
0.033658739 0.71100003 -0.036151983 1.2603786e-38 347 269
0.035003547 0.713 -0.036253672 1.2512672e-38 348 269
0.036253672 0.713 -0.036253672 1.2697063e-38 349 269
0.037503798 0.713 -0.036253672 1.1963108e-38 350 269
0.038753927 0.713 -0.036253672 1.1041151e-38 351 269
-0.01005712 0.71700001 -0.037714198 1.7244918e-38 312 270
-0.0087999795 0.71700001 -0.037714198 1.0145855e-38 313 270
-0.00753232 0.71600002 -0.037661601 1.1144521e-38 314 270
-0.0062330998 0.71100003 -0.037398599 9.9459779e-39 315 270
-0.0049864799 0.71100003 -0.037398599 8.9350476e-39 316 270
-0.0037345996 0.70999998 -0.037345998 8.1974825e-39 317 270
-0.00248272 0.708 -0.0372408 8.9296554e-39 318 270
-0.0012396066 0.70700002 -0.037188202 8.5608728e-39 319 270
0 0.70599997 -0.037135597 8.4679611e-39 320 270
0.0012343467 0.704 -0.037030395 8.6519923e-39 321 270
0.0024686933 0.704 -0.037030395 8.6512734e-39 322 270
0.0036977797 0.70300001 -0.036977798 8.8356647e-39 323 270
0.0049303733 0.70300001 -0.036977798 9.0189769e-39 324 270
0.0061454331 0.70099998 -0.036872596 9.0189769e-39 325 270
0.0073639993 0.69999999 -0.036819998 9.5689109e-39 326 270
0.0085913334 0.69999999 -0.036819998 9.8454978e-39 327 270
0.0098186666 0.69999999 -0.036819998 1.0580542e-38 328 270
0.01099866 0.69700003 -0.036662199 1.0857489e-38 329 270
0.012220734 0.69700003 -0.036662199 1.1593249e-38 330 270
0.013423519 0.69599998 -0.036609598 1.2146423e-38 331 270
0.014643839 0.69599998 -0.036609598 1.2790698e-38 332 270
0.015864158 0.69599998 -0.036609598 1.2975089e-38 333 270
0.017084479 0.69599998 -0.036609598 1.2976517e-38 334 270
0.018331099 0.69700003 -0.036662199 1.2792127e-38 335 270
0.019553173 0.69700003 -0.036662199 1.315911e-38 336 270
0.020775247 0.69700003 -0.036662199 1.315911e-38 337 270
0.02202888 0.69800001 -0.0367148 1.3159464e-38 338 270
0.023252707 0.69800001 -0.0367148 1.3528247e-38 339 270
0.024546666 0.69999999 -0.036819998 1.3436768e-38 340 270
0.025773998 0.69999999 -0.036819998 1.3068344e-38 341 270
0.027001332 0.69999999 -0.036819998 1.2516256e-38 342 270
0.028228667 0.69999999 -0.036819998 1.2332224e-38 343 270
0.029455997 0.69999999 -0.036819998 1.2423343e-38 344 270
0.030683333 0.69999999 -0.036819998 1.2331148e-38 345 270
0.03227536 0.708 -0.0372408 1.251482e-38 346 270
0.033611398 0.70999998 -0.037345998 1.2698851e-38 347 270
0.034856264 0.70999998 -0.037345998 1.2698851e-38 348 270
0.036151983 0.71100003 -0.037398599 1.2791048e-38 349 270
0.037398599 0.71100003 -0.037398599 1.2239678e-38 350 270
0.038645219 0.71100003 -0.037398599 1.1594308e-38 351 270
0.039891839 0.71100003 -0.037398599 8.5608896e-39 352 270
-0.01131426 0.71700001 -0.038971342 1.7703376e-38 311 271
-0.01005712 0.71700001 -0.038971342 1.5399561e-38 312 271
-0.0087999795 0.71700001 -0.038971342 8.3926932e-39 313 271
-0.00753232 0.71600002 -0.038916986 1.03162e-38 314 271
-0.0062506334 0.713 -0.038753927 8.9332651e-39 315 271
-0.0049794666 0.70999998 -0.038590867 7.8290699e-39 316 271
-0.0037188199 0.70700002 -0.038427804 7.5524816e-39 317 271
-0.0024792133 0.70700002 -0.038427804 8.1924603e-39 318 271
-0.0012378532 0.70599997 -0.038373452 8.1002646e-39 319 271
0 0.704 -0.038264744 8.3754096e-39 320 271
0.0012325933 0.70300001 -0.038210396 8.3754096e-39 321 271
0.0024651866 0.70300001 -0.038210396 8.6512734e-39 322 271
0.0036872597 0.70099998 -0.038101684 8.6512734e-39 323 271
0.0049163462 0.70099998 -0.038101684 9.017535e-39 324 271
0.0061366665 0.69999999 -0.038047329 9.017535e-39 325 271
0.0073429602 0.69800001 -0.037938625 9.3838008e-39 326 271
0.0085667865 0.69800001 -0.037938625 9.5678319e-39 327 271
0.0097906133 0.69800001 -0.037938625 1.0120287e-38 328 271
0.010982879 0.69599998 -0.037829921 1.0673461e-38 329 271
0.0122032 0.69599998 -0.037829921 1.1776564e-38 330 271
0.013423519 0.69599998 -0.037829921 1.2329738e-38 331 271
0.014643839 0.69599998 -0.037829921 1.2881827e-38 332 271
0.015864158 0.69599998 -0.037829921 1.3158054e-38 333 271
0.017084479 0.69599998 -0.037829921 1.2975095e-38 334 271
0.018304799 0.69599998 -0.037829921 1.288254e-38 335 271
0.019553173 0.69700003 -0.037884273 1.3248808e-38 336 271
0.020775247 0.69700003 -0.037884273 1.3248808e-38 337 271
0.02199732 0.69700003 -0.037884273 1.3158407e-38 338 271
0.023252707 0.69800001 -0.037938625 1.3250603e-38 339 271
0.024476532 0.69800001 -0.037938625 1.3068362e-38 340 271
0.025700359 0.69800001 -0.037938625 1.3068362e-38 341 271
0.027001332 0.69999999 -0.038047329 1.2699578e-38 342 271
0.028228667 0.69999999 -0.038047329 1.2607383e-38 343 271
0.029455997 0.69999999 -0.038047329 1.2514833e-38 344 271
0.030683333 0.69999999 -0.038047329 1.2514833e-38 345 271
0.031910665 0.69999999 -0.038047329 1.2332597e-38 346 271
0.033137999 0.69999999 -0.038047329 1.2609183e-38 347 271
0.034414422 0.70099998 -0.038101684 1.2334745e-38 348 271
0.036151983 0.71100003 -0.038645219 1.2334745e-38 349 271
0.037345998 0.70999998 -0.038590867 1.2058884e-38 350 271
0.038590867 0.70999998 -0.038590867 1.2058884e-38 351 271
0.039891839 0.71100003 -0.038645219 1.1228432e-38 352 271
0.041138459 0.71100003 -0.038645219 1.0306836e-38 353 271
0.042385083 0.71100003 -0.038645219 1.2168043e-38 354 271
-0.01131426 0.71700001 -0.040228479 1.6134974e-38 311 272
-0.01005712 0.71700001 -0.040228479 1.2907761e-38 312 272
-0.0087877065 0.71600002 -0.040172372 7.9291955e-39 313 272
-0.0075112795 0.71399999 -0.040060159 9.0279789e-39 314 272
-0.0062243328 0.70999998 -0.039835732 7.6450444e-39 315 272
-0.0049584266 0.70700002 -0.039667413 8.3779277e-39 316 272
-0.0037135598 0.70599997 -0.039611302 7.9169496e-39 317 272
-0.0024757064 0.70599997 -0.039611302 7.9162265e-39 318 272
-0.0012343467 0.704 -0.039499093 7.9162265e-39 319 272
0 0.70300001 -0.039442986 8.1910127e-39 320 272
0.0012290865 0.70099998 -0.039330769 8.2835671e-39 321 272
0.0024581731 0.70099998 -0.039330769 8.7416684e-39 322 272
0.0036872597 0.70099998 -0.039330769 8.7416684e-39 323 272
0.0049093333 0.69999999 -0.039274666 9.0157413e-39 324 272
0.0061366665 0.69999999 -0.039274666 8.9235443e-39 325 272
0.0073429602 0.69800001 -0.039162453 9.1990536e-39 326 272
0.0085545136 0.69700003 -0.039106347 9.2916079e-39 327 272
0.0097765867 0.69700003 -0.039106347 1.0302869e-38 328 272
0.010982879 0.69599998 -0.039050236 1.0855684e-38 329 272
0.0122032 0.69599998 -0.039050236 1.2233934e-38 330 272
0.013423519 0.69599998 -0.039050236 1.2879303e-38 331 272
0.01460176 0.69400001 -0.038938027 1.2972571e-38 332 272
0.015818574 0.69400001 -0.038938027 1.3249158e-38 333 272
0.017084479 0.69599998 -0.039050236 1.3065123e-38 334 272
0.018304799 0.69599998 -0.039050236 1.3249155e-38 335 272
0.019525118 0.69599998 -0.039050236 1.3249158e-38 336 272
0.020775247 0.69700003 -0.039106347 1.3249158e-38 337 272
0.02199732 0.69700003 -0.039106347 1.278998e-38 338 272
0.023252707 0.69800001 -0.039162453 1.2974373e-38 339 272
0.024476532 0.69800001 -0.039162453 1.3157688e-38 340 272
0.025700359 0.69800001 -0.039162453 1.3249884e-38 341 272
0.026924185 0.69800001 -0.039162453 1.2699584e-38 342 272
0.028148014 0.69800001 -0.039162453 1.2514833e-38 343 272
0.029371841 0.69800001 -0.039162453 1.2605236e-38 344 272
0.030595668 0.69800001 -0.039162453 1.2605236e-38 345 272
0.031819493 0.69800001 -0.039162453 1.2698148e-38 346 272
0.033043321 0.69800001 -0.039162453 1.288254e-38 347 272
0.034267146 0.69800001 -0.039162453 1.2332597e-38 348 272
0.035490975 0.69800001 -0.039162453 1.2424792e-38 349 272
0.037345998 0.70999998 -0.039835732 1.214965e-38 350 272
0.038590867 0.70999998 -0.039835732 1.214965e-38 351 272
0.039835732 0.70999998 -0.039835732 1.1783401e-38 352 272
0.041138459 0.71100003 -0.039891839 1.0769609e-38 353 272
0.042325463 0.70999998 -0.039835732 1.0875863e-38 354 272
0.043570329 0.70999998 -0.039835732 1.7052971e-38 355 272
0.044878319 0.71100003 -0.039891839 1.8164003e-38 356 272
-0.010043093 0.71600002 -0.041427758 9.7734823e-39 312 273
-0.0087877065 0.71600002 -0.041427758 7.007612e-39 313 273
-0.0075007593 0.713 -0.041254178 8.5670091e-39 314 273
-0.0062067998 0.708 -0.040964879 7.9216397e-39 315 273
-0.0049584266 0.70700002 -0.040907022 8.0105871e-39 316 273
-0.0037135598 0.70599997 -0.040849157 7.3652177e-39 317 273
-0.0024686933 0.704 -0.040733438 7.2730179e-39 318 273
-0.0012325933 0.70300001 -0.040675577 7.3655737e-39 319 273
0 0.70099998 -0.040559858 7.7318394e-39 320 273
0.0012273333 0.69999999 -0.040502001 7.9158706e-39 321 273
0.0024546667 0.69999999 -0.040502001 8.2821392e-39 322 273
0.0036819996 0.69999999 -0.040502001 8.1899435e-39 323 273
0.0049093333 0.69999999 -0.040502001 8.3732558e-39 324 273
0.006119133 0.69800001 -0.040386278 8.3732558e-39 325 273
0.0073429602 0.69800001 -0.040386278 8.6484007e-39 326 273
0.0085545136 0.69700003 -0.040328421 8.8331507e-39 327 273
0.0097765867 0.69700003 -0.040328421 9.8426237e-39 328 273
0.010982879 0.69599998 -0.040270556 1.0487993e-38 329 273
0.012168133 0.69400001 -0.040154841 1.1407786e-38 330 273
0.013384946 0.69400001 -0.040154841 1.1776567e-38 331 273
0.01460176 0.69400001 -0.040154841 1.2695281e-38 332 273
0.015818574 0.69400001 -0.040154841 1.2879672e-38 333 273
0.017035386 0.69400001 -0.040154841 1.260488e-38 334 273
0.018304799 0.69599998 -0.040270556 1.2697076e-38 335 273
0.019525118 0.69599998 -0.040270556 1.2697432e-38 336 273
0.020745439 0.69599998 -0.040270556 1.2697432e-38 337 273
0.021965759 0.69599998 -0.040270556 1.2697796e-38 338 273
0.023219392 0.69700003 -0.040328421 1.2513763e-38 339 273
0.024441468 0.69700003 -0.040328421 1.2331171e-38 340 273
0.025700359 0.69800001 -0.040386278 1.2331171e-38 341 273
0.026924185 0.69800001 -0.040386278 1.2422284e-38 342 273
0.028148014 0.69800001 -0.040386278 1.2330088e-38 343 273
0.029371841 0.69800001 -0.040386278 1.2144625e-38 344 273
0.030595668 0.69800001 -0.040386278 1.2144625e-38 345 273
0.031819493 0.69800001 -0.040386278 1.1961681e-38 346 273
0.033043321 0.69800001 -0.040386278 1.1961681e-38 347 273
0.034218054 0.69700003 -0.040328421 1.1779088e-38 348 273
0.035440128 0.69700003 -0.040328421 1.1779088e-38 349 273
0.0367148 0.69800001 -0.040386278 1.1320631e-38 350 273
0.038373452 0.70599997 -0.040849157 1.1505022e-38 351 273
0.039723519 0.708 -0.040964879 1.1139849e-38 352 273
0.040964879 0.708 -0.040964879 1.0678871e-38 353 273
0.042325463 0.70999998 -0.041080594 1.07772e-38 354 273
0.043570329 0.70999998 -0.041080594 1.6308938e-38 355 273
0.044815198 0.70999998 -0.041080594 1.7150207e-38 356 273
0.046060063 0.70999998 -0.041080594 1.8533142e-38 357 273
-0.012553867 0.71600002 -0.042683143 1.8715738e-38 310 274
-0.01129848 0.71600002 -0.042683143 1.2077294e-38 311 274
-0.01001504 0.71399999 -0.042563915 8.1150357e-39 312 274
-0.0087631596 0.71399999 -0.042563915 6.0867319e-39 313 274
-0.0074691991 0.70999998 -0.042325463 7.4621007e-39 314 274
-0.0061980332 0.70700002 -0.042146627 7.1858739e-39 315 274
-0.0049514128 0.70599997 -0.042087011 7.5499677e-39 316 274
-0.0037030398 0.704 -0.041967787 7.2730207e-39 317 274
-0.0024686933 0.704 -0.041967787 7.2726521e-39 318 274
-0.0012325933 0.70300001 -0.041908171 7.3648478e-39 319 274
0 0.69999999 -0.041729331 7.8233078e-39 320 274
0.0012273333 0.69999999 -0.041729331 7.8233078e-39 321 274
0.0024546667 0.69999999 -0.041729331 8.0980968e-39 322 274
0.0036714801 0.69800001 -0.041610107 8.0980968e-39 323 274
0.0048953067 0.69800001 -0.041610107 8.2810489e-39 324 274
0.006119133 0.69800001 -0.041610107 8.2810489e-39 325 274
0.00733244 0.69700003 -0.041550495 8.8320647e-39 326 274
0.0085545136 0.69700003 -0.041550495 8.9242618e-39 327 274
0.0097345067 0.69400001 -0.041371655 1.0027005e-38 328 274
0.01095132 0.69400001 -0.041371655 1.0395429e-38 329 274
0.012168133 0.69400001 -0.041371655 1.1681482e-38 330 274
0.013384946 0.69400001 -0.041371655 1.214246e-38 331 274
0.01460176 0.69400001 -0.041371655 1.278459e-38 332 274
0.015818574 0.69400001 -0.041371655 1.2968621e-38 333 274
0.017035386 0.69400001 -0.041371655 1.2602715e-38 334 274
0.0182522 0.69400001 -0.041371655 1.2694912e-38 335 274
0.019469013 0.69400001 -0.041371655 1.2694559e-38 336 274
0.020685827 0.69400001 -0.041371655 1.2694559e-38 337 274
0.021965759 0.69599998 -0.041490879 1.2419773e-38 338 274
0.023186078 0.69599998 -0.041490879 1.2419773e-38 339 274
0.0244064 0.69599998 -0.041490879 1.2236455e-38 340 274
0.025663542 0.69700003 -0.041550495 1.2236455e-38 341 274
0.026885614 0.69700003 -0.041550495 1.2236811e-38 342 274
0.028107686 0.69700003 -0.041550495 1.2144255e-38 343 274
0.02932976 0.69700003 -0.041550495 1.1959511e-38 344 274
0.030551834 0.69700003 -0.041550495 1.1867315e-38 345 274
0.03177391 0.69700003 -0.041550495 1.1958795e-38 346 274
0.03299598 0.69700003 -0.041550495 1.205099e-38 347 274
0.034218054 0.69700003 -0.041550495 1.1776198e-38 348 274
0.035440128 0.69700003 -0.041550495 1.1776198e-38 349 274
0.0367148 0.69800001 -0.041610107 1.1135145e-38 350 274
0.038101684 0.70099998 -0.041788943 1.1135145e-38 351 274
0.039499093 0.704 -0.041967787 1.0311871e-38 352 274
0.040907022 0.70700002 -0.042146627 1.0219675e-38 353 274
0.042206239 0.708 -0.042206239 1.059244e-38 354 274
0.043570329 0.70999998 -0.042325463 1.4556852e-38 355 274
0.044815198 0.70999998 -0.042325463 1.6229693e-38 356 274
0.046060063 0.70999998 -0.042325463 1.8350193e-38 357 274
0.047304932 0.70999998 -0.042325463 1.8714653e-38 358 274
-0.013828539 0.71700001 -0.043999899 1.8901201e-38 309 275
-0.012553867 0.71600002 -0.043938532 1.7793775e-38 310 275
-0.011266919 0.71399999 -0.043815799 1.0971658e-38 311 275
-0.010001013 0.713 -0.043754432 7.1934297e-39 312 275
-0.0087263398 0.71100003 -0.043631699 5.8101366e-39 313 275
-0.0074376399 0.70700002 -0.043386232 7.6436095e-39 314 275
-0.0061892662 0.70599997 -0.043324865 7.3670212e-39 315 275
-0.0049514128 0.70599997 -0.043324865 7.3652177e-39 316 275
-0.0037030398 0.704 -0.043202132 7.2730207e-39 317 275
-0.0024651866 0.70300001 -0.043140765 7.272299e-39 318 275
-0.0012290865 0.70099998 -0.043018032 7.1801034e-39 319 275
0 0.69999999 -0.042956665 7.3626996e-39 320 275
0.0012273333 0.69999999 -0.042956665 7.3626996e-39 321 275
0.0024476533 0.69800001 -0.042833932 7.6371257e-39 322 275
0.0036714801 0.69800001 -0.042833932 7.8211568e-39 323 275
0.0048953067 0.69800001 -0.042833932 7.821154e-39 324 275
0.006119133 0.69800001 -0.042833932 7.9137084e-39 325 275
0.00733244 0.69700003 -0.042772565 8.1884946e-39 326 275
0.0085422397 0.69599998 -0.042711195 8.3732446e-39 327 275
0.0097345067 0.69400001 -0.042588469 9.4749174e-39 328 275
0.01095132 0.69400001 -0.042588469 1.0028091e-38 329 275
0.012168133 0.69400001 -0.042588469 1.0946803e-38 330 275
0.013384946 0.69400001 -0.042588469 1.1223392e-38 331 275
0.014580719 0.69300002 -0.042527102 1.1866599e-38 332 275
0.015795778 0.69300002 -0.042527102 1.1958795e-38 333 275
0.017035386 0.69400001 -0.042588469 1.205099e-38 334 275
0.0182522 0.69400001 -0.042588469 1.205099e-38 335 275
0.019469013 0.69400001 -0.042588469 1.2234305e-38 336 275
0.020685827 0.69400001 -0.042588469 1.214211e-38 337 275
0.021902639 0.69400001 -0.042588469 1.2234305e-38 338 275
0.023119451 0.69400001 -0.042588469 1.2234305e-38 339 275
0.024336265 0.69400001 -0.042588469 1.1958795e-38 340 275
0.025626717 0.69599998 -0.042711195 1.205099e-38 341 275
0.026847038 0.69599998 -0.042711195 1.1776198e-38 342 275
0.028067358 0.69599998 -0.042711195 1.1684003e-38 343 275
0.029287677 0.69599998 -0.042711195 1.1040798e-38 344 275
0.030551834 0.69700003 -0.042772565 1.1040798e-38 345 275
0.03177391 0.69700003 -0.042772565 1.094825e-38 346 275
0.03299598 0.69700003 -0.042772565 1.1040445e-38 347 275
0.034218054 0.69700003 -0.042772565 1.131559e-38 348 275
0.035440128 0.69700003 -0.042772565 1.131559e-38 349 275
0.0367148 0.69800001 -0.042833932 1.1132997e-38 350 275
0.038047329 0.69999999 -0.042956665 1.1132997e-38 351 275
0.039330769 0.70099998 -0.043018032 1.012424e-38 352 275
0.040733438 0.704 -0.043202132 1.012424e-38 353 275
0.042146627 0.70700002 -0.043386232 9.3034924e-39 354 275
0.043447599 0.708 -0.043447599 1.2438504e-38 355 275
0.044815198 0.70999998 -0.043570329 1.5674721e-38 356 275
0.046060063 0.70999998 -0.043570329 1.862534e-38 357 275
0.047304932 0.70999998 -0.043570329 1.853206e-38 358 275
-0.013828539 0.71700001 -0.045257039 1.8716454e-38 309 276
-0.012518799 0.71399999 -0.045067675 1.6872179e-38 310 276
-0.01121958 0.71100003 -0.044878319 1.0233735e-38 311 276
-0.0099729598 0.71100003 -0.044878319 6.7306509e-39 312 276
-0.0087140659 0.70999998 -0.044815198 5.6246621e-39 313 276
-0.0074376399 0.70700002 -0.044625837 8.1931819e-39 314 276
-0.0061892662 0.70599997 -0.044562716 7.7322052e-39 315 276
-0.0049373866 0.704 -0.044436477 7.2730207e-39 316 276
-0.0037030398 0.704 -0.044436477 7.0889896e-39 317 276
-0.0024581731 0.70099998 -0.044247117 7.271583e-39 318 276
-0.0012273333 0.69999999 -0.044183996 7.0871917e-39 319 276
0 0.69999999 -0.044183996 7.5445769e-39 320 276
0.0012273333 0.69999999 -0.044183996 7.3601843e-39 321 276
0.0024476533 0.69800001 -0.04405776 7.6353264e-39 322 276
0.0036714801 0.69800001 -0.04405776 7.6353264e-39 323 276
0.0048953067 0.69800001 -0.04405776 7.6363956e-39 324 276
0.0061103669 0.69700003 -0.043994639 7.8207883e-39 325 276
0.00733244 0.69700003 -0.043994639 8.370725e-39 326 276
0.0085422397 0.69599998 -0.043931518 8.6469518e-39 327 276
0.0097345067 0.69400001 -0.043805279 9.7493435e-39 328 276
0.01095132 0.69400001 -0.043805279 1.0117766e-38 329 276
0.012150601 0.69300002 -0.043742158 1.112975e-38 330 276
0.01336566 0.69300002 -0.043742158 1.1314141e-38 331 276
0.014580719 0.69300002 -0.043742158 1.1774754e-38 332 276
0.015795778 0.69300002 -0.043742158 1.1866949e-38 333 276
0.01701084 0.69300002 -0.043742158 1.1959145e-38 334 276
0.0182522 0.69400001 -0.043805279 1.1959145e-38 335 276
0.019469013 0.69400001 -0.043805279 1.2142457e-38 336 276
0.020685827 0.69400001 -0.043805279 1.2050262e-38 337 276
0.021902639 0.69400001 -0.043805279 1.214246e-38 338 276
0.023119451 0.69400001 -0.043805279 1.2050264e-38 339 276
0.024336265 0.69400001 -0.043805279 1.1775117e-38 340 276
0.025553079 0.69400001 -0.043805279 1.1591085e-38 341 276
0.026769891 0.69400001 -0.043805279 1.1498537e-38 342 276
0.027986705 0.69400001 -0.043805279 1.1498537e-38 343 276
0.029287677 0.69599998 -0.043931518 1.0856406e-38 344 276
0.030507999 0.69599998 -0.043931518 1.0580179e-38 345 276
0.031728316 0.69599998 -0.043931518 1.0672375e-38 346 276
0.03299598 0.69700003 -0.043994639 1.0672375e-38 347 276
0.034218054 0.69700003 -0.043994639 1.1039002e-38 348 276
0.035440128 0.69700003 -0.043994639 1.1039002e-38 349 276
0.036662199 0.69700003 -0.043994639 1.1038999e-38 350 276
0.038047329 0.69999999 -0.044183996 1.1131195e-38 351 276
0.039330769 0.70099998 -0.044247117 1.0490499e-38 352 276
0.040675577 0.70300001 -0.04437336 1.0213552e-38 353 276
0.042087011 0.70599997 -0.044562716 8.5644868e-39 354 276
0.043447599 0.708 -0.044688959 1.1053767e-38 355 276
0.044815198 0.70999998 -0.044815198 1.456873e-38 356 276
0.046060063 0.70999998 -0.044815198 1.8348392e-38 357 276
0.047304932 0.70999998 -0.044815198 1.8623893e-38 358 276
-0.012501267 0.713 -0.046254687 1.6410838e-38 310 277
-0.01121958 0.71100003 -0.046124939 9.6809167e-39 311 277
-0.0099589331 0.70999998 -0.046060063 6.3604265e-39 312 277
-0.008689519 0.708 -0.045930319 5.7150571e-39 313 277
-0.0074376399 0.70700002 -0.045865446 7.8251197e-39 314 277
-0.0061892662 0.70599997 -0.04580057 7.3645003e-39 315 277
-0.0049373866 0.704 -0.045670826 7.0889896e-39 316 277
-0.0037030398 0.704 -0.045670826 6.9045983e-39 317 277
-0.0024581731 0.70099998 -0.045476202 7.3619807e-39 318 277
-0.0012273333 0.69999999 -0.04541133 7.1775881e-39 319 277
0 0.69999999 -0.04541133 7.3594626e-39 320 277
0.0012273333 0.69999999 -0.04541133 7.1750713e-39 321 277
0.0024476533 0.69800001 -0.045281585 7.3583808e-39 322 277
0.0036714801 0.69800001 -0.045281585 7.4505764e-39 323 277
0.0048953067 0.69800001 -0.045281585 7.543844e-39 324 277
0.0061103669 0.69700003 -0.045216713 7.6363984e-39 325 277
0.00733244 0.69700003 -0.045216713 8.2781721e-39 326 277
0.0085422397 0.69599998 -0.045151837 8.3707278e-39 327 277
0.0097345067 0.69400001 -0.045022093 9.5649508e-39 328 277
0.01095132 0.69400001 -0.045022093 1.002557e-38 329 277
0.012150601 0.69300002 -0.044957221 1.0853523e-38 330 277
0.01336566 0.69300002 -0.044957221 1.1221946e-38 331 277
0.014580719 0.69300002 -0.044957221 1.140669e-38 332 277
0.015795778 0.69300002 -0.044957221 1.1867668e-38 333 277
0.01701084 0.69300002 -0.044957221 1.1501044e-38 334 277
0.018225901 0.69300002 -0.044957221 1.1501044e-38 335 277
0.019469013 0.69400001 -0.045022093 1.1775473e-38 336 277
0.020685827 0.69400001 -0.045022093 1.1775473e-38 337 277
0.021902639 0.69400001 -0.045022093 1.1866946e-38 338 277
0.023119451 0.69400001 -0.045022093 1.1774751e-38 339 277
0.024336265 0.69400001 -0.045022093 1.1682202e-38 340 277
0.025553079 0.69400001 -0.045022093 1.1590005e-38 341 277
0.026769891 0.69400001 -0.045022093 1.1313425e-38 342 277
0.027986705 0.69400001 -0.045022093 1.1313425e-38 343 277
0.029287677 0.69599998 -0.045151837 1.0578741e-38 344 277
0.030507999 0.69599998 -0.045151837 1.0578741e-38 345 277
0.031728316 0.69599998 -0.045151837 1.0212117e-38 346 277
0.032948639 0.69599998 -0.045151837 1.0212117e-38 347 277
0.034218054 0.69700003 -0.045216713 1.0761337e-38 348 277
0.035440128 0.69700003 -0.045216713 1.0853533e-38 349 277
0.036662199 0.69700003 -0.045216713 1.0946803e-38 350 277
0.037938625 0.69800001 -0.045281585 1.0946803e-38 351 277
0.039274666 0.69999999 -0.04541133 1.0397227e-38 352 277
0.040559858 0.70099998 -0.045476202 1.0212836e-38 353 277
0.041908171 0.70300001 -0.04560595 9.2048227e-39 354 277
0.043386232 0.70700002 -0.045865446 1.0863985e-38 355 277
0.044815198 0.70999998 -0.046060063 1.3645695e-38 356 277
0.046060063 0.70999998 -0.046060063 1.8255476e-38 357 277
0.047371563 0.71100003 -0.046124939 1.8715007e-38 358 277
-0.012501267 0.713 -0.047504812 1.7423182e-38 310 278
-0.01121958 0.71100003 -0.047371563 9.7705844e-39 311 278
-0.0099589331 0.70999998 -0.047304932 5.8987224e-39 312 278
-0.008689519 0.708 -0.047171678 5.6224943e-39 313 278
-0.0074376399 0.70700002 -0.047105055 7.9176712e-39 314 278
-0.0061892662 0.70599997 -0.047038425 7.3644975e-39 315 278
-0.0049373866 0.704 -0.046905171 6.9967939e-39 316 278
-0.0036977797 0.70300001 -0.046838548 6.8120439e-39 317 278
-0.0024581731 0.70099998 -0.046705291 7.4531002e-39 318 278
-0.0012273333 0.69999999 -0.046638668 7.0843176e-39 319 278
0 0.69999999 -0.046638668 7.1747154e-39 320 278
0.0012273333 0.69999999 -0.046638668 6.9903227e-39 321 278
0.0024476533 0.69800001 -0.046505414 6.7155281e-39 322 278
0.0036714801 0.69800001 -0.046505414 6.9002795e-39 323 278
0.0048953067 0.69800001 -0.046505414 7.3587339e-39 324 278
0.0061103669 0.69700003 -0.046438783 7.5431252e-39 325 278
0.0073219193 0.69599998 -0.046372157 8.1856233e-39 326 278
0.0085422397 0.69599998 -0.046372157 8.2781791e-39 327 278
0.0097345067 0.69400001 -0.046238903 9.1965354e-39 328 278
0.01095132 0.69400001 -0.046238903 9.6575136e-39 329 278
0.012150601 0.69300002 -0.04617228 1.0393632e-38 330 278
0.01336566 0.69300002 -0.04617228 1.0762416e-38 331 278
0.014580719 0.69300002 -0.04617228 1.1223027e-38 332 278
0.015795778 0.69300002 -0.04617228 1.1591451e-38 333 278
0.01701084 0.69300002 -0.04617228 1.1408492e-38 334 278
0.018225901 0.69300002 -0.04617228 1.1408492e-38 335 278
0.01944096 0.69300002 -0.04617228 1.177547e-38 336 278
0.020656019 0.69300002 -0.04617228 1.1591439e-38 337 278
0.021871079 0.69300002 -0.04617228 1.1958419e-38 338 278
0.02308614 0.69300002 -0.04617228 1.1774387e-38 339 278
0.024301201 0.69300002 -0.04617228 1.1681835e-38 340 278
0.02551626 0.69300002 -0.04617228 1.1497444e-38 341 278
0.02673132 0.69300002 -0.04617228 1.1312343e-38 342 278
0.027946379 0.69300002 -0.04617228 1.1036115e-38 343 278
0.029203519 0.69400001 -0.046238903 1.0485106e-38 344 278
0.030420333 0.69400001 -0.046238903 1.0485106e-38 345 278
0.031637147 0.69400001 -0.046238903 1.0393632e-38 346 278
0.032853961 0.69400001 -0.046238903 1.0393632e-38 347 278
0.034168959 0.69599998 -0.046372157 1.0393632e-38 348 278
0.035389278 0.69599998 -0.046372157 1.0485828e-38 349 278
0.036662199 0.69700003 -0.046438783 1.0578741e-38 350 278
0.037938625 0.69800001 -0.046505414 1.0578741e-38 351 278
0.039162453 0.69800001 -0.046505414 1.0212836e-38 352 278
0.040502001 0.69999999 -0.046638668 1.0212836e-38 353 278
0.041788943 0.70099998 -0.046705291 9.5718032e-39 354 278
0.043202132 0.704 -0.046905171 1.0124618e-38 355 278
0.044815198 0.70999998 -0.047304932 1.3180758e-38 356 278
-0.01371282 0.71100003 -0.048618179 2.1388317e-38 309 279
-0.0124662 0.71100003 -0.048618179 1.9724833e-38 310 279
-0.011203799 0.70999998 -0.048549797 9.8599003e-39 311 279
-0.0099308798 0.708 -0.048413038 5.253353e-39 312 279
-0.008677247 0.70700002 -0.048344657 5.8987224e-39 313 279
-0.0074271196 0.70599997 -0.048276275 7.2751759e-39 314 279
-0.0061717331 0.704 -0.048139516 6.9063934e-39 315 279
-0.0049303733 0.70300001 -0.048071139 6.9967911e-39 316 279
-0.0036977797 0.70300001 -0.048071139 6.6276485e-39 317 279
-0.0024546667 0.69999999 -0.047865998 7.3594626e-39 318 279
-0.0012273333 0.69999999 -0.047865998 7.0828757e-39 319 279
0 0.69999999 -0.047865998 7.0828757e-39 320 279
0.0012238267 0.69800001 -0.047729239 6.8981243e-39 321 279
0.0024476533 0.69800001 -0.047729239 6.8070077e-39 322 279
0.0036714801 0.69800001 -0.047729239 6.8070077e-39 323 279
0.0048882933 0.69700003 -0.047660861 7.540977e-39 324 279
0.0061103669 0.69700003 -0.047660861 7.6331726e-39 325 279
0.0073219193 0.69599998 -0.047592476 8.4596921e-39 326 279
0.0085176928 0.69400001 -0.047455717 8.4596921e-39 327 279
0.0097345067 0.69400001 -0.047455717 9.2862143e-39 328 279
0.010935539 0.69300002 -0.047387339 9.6549955e-39 329 279
0.012150601 0.69300002 -0.047387339 1.0483311e-38 330 279
0.01336566 0.69300002 -0.047387339 1.1036485e-38 331 279
0.014580719 0.69300002 -0.047387339 1.1314144e-38 332 279
0.015795778 0.69300002 -0.047387339 1.1590732e-38 333 279
0.01701084 0.69300002 -0.047387339 1.1498893e-38 334 279
0.018225901 0.69300002 -0.047387339 1.1591088e-38 335 279
0.01944096 0.69300002 -0.047387339 1.1774754e-38 336 279
0.020656019 0.69300002 -0.047387339 1.1774754e-38 337 279
0.021871079 0.69300002 -0.047387339 1.1774387e-38 338 279
0.02308614 0.69300002 -0.047387339 1.1774387e-38 339 279
0.024301201 0.69300002 -0.047387339 1.1589283e-38 340 279
0.02551626 0.69300002 -0.047387339 1.1497088e-38 341 279
0.02673132 0.69300002 -0.047387339 1.103648e-38 342 279
0.027946379 0.69300002 -0.047387339 1.0760251e-38 343 279
0.029203519 0.69400001 -0.047455717 1.0484383e-38 344 279
0.030420333 0.69400001 -0.047455717 1.0484383e-38 345 279
0.031637147 0.69400001 -0.047455717 1.0299994e-38 346 279
0.032853961 0.69400001 -0.047455717 1.0484383e-38 347 279
0.034168959 0.69599998 -0.047592476 1.0301434e-38 348 279
0.035389278 0.69599998 -0.047592476 1.0301434e-38 349 279
0.036662199 0.69700003 -0.047660861 1.0485825e-38 350 279
0.037938625 0.69800001 -0.047729239 1.0578022e-38 351 279
0.039162453 0.69800001 -0.047729239 1.0396504e-38 352 279
0.040502001 0.69999999 -0.047865998 1.0488699e-38 353 279
0.041729331 0.69999999 -0.047865998 9.4788859e-39 354 279
0.043140765 0.70300001 -0.048071139 9.3866902e-39 355 279
0.044562716 0.70599997 -0.048276275 1.2994208e-38 356 279
-0.013693533 0.70999998 -0.049794663 2.0923742e-38 309 280
-0.012448666 0.70999998 -0.049794663 1.7517548e-38 310 280
-0.011203799 0.70999998 -0.049794663 8.4820162e-39 311 280
-0.0099308798 0.708 -0.049654398 5.2519265e-39 312 280
-0.0086649731 0.70599997 -0.04951413 6.7274167e-39 313 280
-0.0074060797 0.704 -0.049373865 8.0098669e-39 314 280
-0.0061629666 0.70300001 -0.049303733 7.3644975e-39 315 280
-0.0049303733 0.70300001 -0.049303733 6.9045927e-39 316 280
-0.0036872597 0.70099998 -0.049163464 6.4439733e-39 317 280
-0.0024546667 0.69999999 -0.049093332 6.8088069e-39 318 280
-0.0012273333 0.69999999 -0.049093332 6.6244157e-39 319 280
0 0.69800001 -0.048953064 6.3489064e-39 320 280
0.0012238267 0.69800001 -0.048953064 6.3489064e-39 321 280
0.0024476533 0.69800001 -0.048953064 6.5311439e-39 322 280
0.00366622 0.69700003 -0.048882935 6.7155337e-39 323 280
0.0048882933 0.69700003 -0.048882935 7.3573116e-39 324 280
0.0061015999 0.69599998 -0.048812799 7.5417029e-39 325 280
0.0073008798 0.69400001 -0.048672531 7.9086833e-39 326 280
0.0085176928 0.69400001 -0.048672531 8.0934333e-39 327 280
0.0097204801 0.69300002 -0.048602402 8.828476e-39 328 280
0.010935539 0.69300002 -0.048602402 9.1972571e-39 329 280
0.012115533 0.69099998 -0.04846213 1.0025217e-38 330 280
0.013327086 0.69099998 -0.04846213 1.0302163e-38 331 280
0.014538639 0.69099998 -0.04846213 1.0855334e-38 332 280
0.015795778 0.69300002 -0.048602402 1.0947529e-38 333 280
0.01701084 0.69300002 -0.048602402 1.1223392e-38 334 280
0.018225901 0.69300002 -0.048602402 1.1315946e-38 335 280
0.01944096 0.69300002 -0.048602402 1.1224101e-38 336 280
0.020656019 0.69300002 -0.048602402 1.1224101e-38 337 280
0.021871079 0.69300002 -0.048602402 1.140741e-38 338 280
0.023019511 0.69099998 -0.04846213 1.1223378e-38 339 280
0.024231065 0.69099998 -0.04846213 1.1681838e-38 340 280
0.02551626 0.69300002 -0.048602402 1.1312697e-38 341 280
0.026654173 0.69099998 -0.04846213 1.131126e-38 342 280
0.027865725 0.69099998 -0.04846213 1.1218706e-38 343 280
0.029161438 0.69300002 -0.048602402 1.0575857e-38 344 280
0.030420333 0.69400001 -0.048672531 1.0483662e-38 345 280
0.031637147 0.69400001 -0.048672531 1.0301068e-38 346 280
0.032853961 0.69400001 -0.048672531 1.0301068e-38 347 280
0.034168959 0.69599998 -0.048812799 1.0300715e-38 348 280
0.035389278 0.69599998 -0.048812799 1.0392911e-38 349 280
0.036662199 0.69700003 -0.048882935 1.0027371e-38 350 280
0.037938625 0.69800001 -0.048953064 1.0119568e-38 351 280
0.039162453 0.69800001 -0.048953064 9.9369774e-39 352 280
0.040502001 0.69999999 -0.049093332 1.0029173e-38 353 280
0.041729331 0.69999999 -0.049093332 9.3856183e-39 354 280
0.043018032 0.70099998 -0.049163464 8.7402488e-39 355 280
0.044247117 0.70099998 -0.049163464 1.2072611e-38 356 280
0.045476202 0.70099998 -0.049163464 1.8618501e-38 357 280
-0.013693533 0.70999998 -0.051039528 1.8617769e-38 309 281
-0.012448666 0.70999998 -0.051039528 1.5124419e-38 310 281
-0.01117224 0.708 -0.050895758 7.7487671e-39 311 281
-0.0099308798 0.708 -0.050895758 5.5299581e-39 312 281
-0.0086649731 0.70599997 -0.050751984 6.9128926e-39 313 281
-0.0074060797 0.704 -0.050608214 7.6425291e-39 314 281
-0.0061629666 0.70300001 -0.050536323 7.1815523e-39 315 281
-0.0049303733 0.70300001 -0.050536323 6.9038766e-39 316 281
-0.0036872597 0.70099998 -0.050392549 6.534734e-39 317 281
-0.0024546667 0.69999999 -0.050320663 6.6254877e-39 318 281
-0.0012273333 0.69999999 -0.050320663 6.533292e-39 319 281
0 0.69800001 -0.050176892 6.257424e-39 320 281
0.0012238267 0.69800001 -0.050176892 6.1652284e-39 321 281
0.0024476533 0.69800001 -0.050176892 6.714812e-39 322 281
0.00366622 0.69700003 -0.050105009 6.8070077e-39 323 281
0.0048812795 0.69599998 -0.050033119 7.540977e-39 324 281
0.0060840664 0.69400001 -0.049889345 7.7253682e-39 325 281
0.0073008798 0.69400001 -0.049889345 8.4596893e-39 326 281
0.0085054198 0.69300002 -0.049817458 8.5518849e-39 327 281
0.0097204801 0.69300002 -0.049817458 9.1039741e-39 328 281
0.01090398 0.69099998 -0.049673684 9.4723965e-39 329 281
0.012115533 0.69099998 -0.049673684 1.0025205e-38 330 281
0.013327086 0.69099998 -0.049673684 1.0578378e-38 331 281
0.014538639 0.69099998 -0.049673684 1.0763844e-38 332 281
0.015750192 0.69099998 -0.049673684 1.085604e-38 333 281
0.016961746 0.69099998 -0.049673684 1.1131548e-38 334 281
0.0181733 0.69099998 -0.049673684 1.1131548e-38 335 281
0.019384852 0.69099998 -0.049673684 1.1130826e-38 336 281
0.020596405 0.69099998 -0.049673684 1.1130826e-38 337 281
0.021807959 0.69099998 -0.049673684 1.1131182e-38 338 281
0.023019511 0.69099998 -0.049673684 1.1131182e-38 339 281
0.024231065 0.69099998 -0.049673684 1.1314494e-38 340 281
0.02551626 0.69300002 -0.049817458 1.1222299e-38 341 281
0.026654173 0.69099998 -0.049673684 1.0945719e-38 342 281
0.027865725 0.69099998 -0.049673684 1.0668772e-38 343 281
0.029161438 0.69300002 -0.049817458 1.0393267e-38 344 281
0.030420333 0.69400001 -0.049889345 1.0208517e-38 345 281
0.031637147 0.69400001 -0.049889345 1.0300712e-38 346 281
0.032853961 0.69400001 -0.049889345 1.0300712e-38 347 281
0.034070771 0.69400001 -0.049889345 1.0300715e-38 348 281
0.035287585 0.69400001 -0.049889345 1.0300715e-38 349 281
0.036662199 0.69700003 -0.050105009 9.9351725e-39 350 281
0.037938625 0.69800001 -0.050176892 1.0027368e-38 351 281
0.039162453 0.69800001 -0.050176892 9.8440587e-39 352 281
0.040502001 0.69999999 -0.050320663 1.0028091e-38 353 281
0.041729331 0.69999999 -0.050320663 9.9373375e-39 354 281
0.043018032 0.70099998 -0.050392549 8.6469574e-39 355 281
0.044247117 0.70099998 -0.050392549 1.1058088e-38 356 281
0.045476202 0.70099998 -0.050392549 1.7880204e-38 357 281
-0.013693533 0.70999998 -0.052284397 1.8712123e-38 309 282
-0.012448666 0.70999998 -0.052284397 1.6595936e-38 310 282
-0.01117224 0.708 -0.052137118 9.2202847e-39 311 282
-0.0099308798 0.708 -0.052137118 5.8061695e-39 312 282
