# .PCD v.7 - Point Cloud Data file format
FIELDS x y z rgb imX imY
SIZE 4 4 4 4 4 4
TYPE F F F F F F
COUNT 1 1 1 1 1 1
WIDTH 839
HEIGHT 1
VIEWPOINT 0 0 0 1 0 0 0
POINTS 839
DATA ascii
-0.0067415666 0.76899999 -0.018876385 2.1220283e-40 315 254
-0.0053932532 0.76899999 -0.018876385 1.2072887e-40 316 254
-0.0040449398 0.76899999 -0.018876385 3.9731716e-40 317 254
-0.0026966266 0.76899999 -0.018876385 8.5577718e-40 318 254
-0.0013553266 0.773 -0.018974574 6.7102718e-40 319 254
0 0.77100003 -0.018925481 8.5470518e-40 320 254
0.00135182 0.77100003 -0.018925481 8.5470518e-40 321 254
0.0027106532 0.773 -0.018974574 3.9624797e-40 322 254
0.0040659797 0.773 -0.018974574 5.802791e-40 323 254
0.0054213065 0.773 -0.018974574 6.7211179e-40 324 254
0.0067590997 0.77100003 -0.018925481 6.7211179e-40 325 254
0.0080898795 0.76899999 -0.018876385 7.6430742e-40 326 254
0.0094381925 0.76899999 -0.018876385 3.0296914e-40 327 254
0.010786506 0.76899999 -0.018876385 2.9970972e-41 328 254
0.012134819 0.76899999 -0.018876385 3.2852041e-41 329 254
0.013483133 0.76899999 -0.018876385 6.3881932e-39 330 254
0.014831445 0.76899999 -0.018876385 1.1643344e-38 331 254
0.016179759 0.76899999 -0.018876385 1.7058009e-38 332 254
0.017528072 0.76899999 -0.018876385 1.7058009e-38 333 254
-0.041634649 0.76599997 -0.020145798 2.7815775e-41 289 255
-0.040291596 0.76599997 -0.020145798 2.7819978e-41 290 255
-0.038948543 0.76599997 -0.020145798 2.8540246e-41 291 255
-0.037605491 0.76599997 -0.020145798 2.7824182e-41 292 255
-0.036262438 0.76599997 -0.020145798 2.7464049e-41 293 255
-0.026790932 0.764 -0.020093199 9.4725674e-40 300 255
-0.025451386 0.764 -0.020093199 8.5470238e-40 301 255
-0.024174958 0.76599997 -0.020145798 9.4545467e-40 302 255
-0.022861714 0.76700002 -0.020172099 9.4545467e-40 303 255
-0.021516906 0.76700002 -0.020172099 1.2202465e-39 304 255
-0.0202247 0.76899999 -0.0202247 1.1280509e-39 305 255
-0.018876385 0.76899999 -0.0202247 1.2198906e-39 306 255
-0.017528072 0.76899999 -0.0202247 1.2198906e-39 307 255
-0.016179759 0.76899999 -0.0202247 9.4582181e-40 308 255
-0.014831445 0.76899999 -0.0202247 1.0380174e-39 309 255
-0.013483133 0.76899999 -0.0202247 8.5577718e-40 310 255
-0.012134819 0.76899999 -0.0202247 9.4797281e-40 311 255
-0.010786506 0.76899999 -0.0202247 9.4760707e-40 312 255
-0.0094381925 0.76899999 -0.0202247 9.4760707e-40 313 255
-0.0080898795 0.76899999 -0.0202247 8.561303e-40 314 255
-0.0067415666 0.76899999 -0.0202247 7.6357594e-40 315 255
-0.0053932532 0.76899999 -0.0202247 9.4617214e-40 316 255
-0.0040449398 0.76899999 -0.0202247 9.4617214e-40 317 255
-0.0026966266 0.76899999 -0.0202247 9.4581901e-40 318 255
-0.0013483133 0.76899999 -0.0202247 8.5362198e-40 319 255
0 0.76899999 -0.0202247 7.6286268e-40 320 255
0.0013483133 0.76899999 -0.0202247 7.6286268e-40 321 255
0.0027036399 0.77100003 -0.020277301 4.8807085e-40 322 255
0.0040659797 0.773 -0.0203299 5.8026648e-40 323 255
0.0054072798 0.77100003 -0.020277301 8.5505551e-40 324 255
0.0067415666 0.76899999 -0.0202247 8.5505551e-40 325 255
0.0080898795 0.76899999 -0.0202247 8.5505831e-40 326 255
0.0094381925 0.76899999 -0.0202247 8.5505831e-40 327 255
0.010758453 0.76700002 -0.020172099 2.817731e-41 328 255
0.01210326 0.76700002 -0.020172099 2.817731e-41 329 255
0.013448066 0.76700002 -0.020172099 5.0031176e-39 330 255
0.014792874 0.76700002 -0.020172099 1.0534854e-38 331 255
0.01613768 0.76700002 -0.020172099 1.6414451e-38 332 255
0.017482487 0.76700002 -0.020172099 1.6691397e-38 333 255
-0.043033812 0.76700002 -0.021516906 3.1061182e-41 288 256
-0.041634649 0.76599997 -0.021488851 1.2397568e-40 289 256
-0.040186398 0.764 -0.021432746 7.6502628e-40 290 256
-0.038846854 0.764 -0.021432746 6.7283066e-40 291 256
-0.037507307 0.764 -0.021432746 9.4725674e-40 292 256
-0.036073081 0.76200002 -0.02137664 9.4725674e-40 293 256
-0.034737039 0.76200002 -0.02137664 8.5470518e-40 294 256
-0.033401001 0.76200002 -0.02137664 8.5470518e-40 295 256
-0.032064959 0.76200002 -0.02137664 8.5470799e-40 296 256
-0.030728921 0.76200002 -0.02137664 7.6215362e-40 297 256
-0.029392879 0.76200002 -0.02137664 4.873618e-40 298 256
-0.028130481 0.764 -0.021432746 3.9516477e-40 299 256
-0.0267208 0.76200002 -0.02137664 3.9480183e-40 300 256
-0.02538476 0.76200002 -0.02137664 3.9480183e-40 301 256
-0.024174958 0.76599997 -0.021488851 3.9479903e-40 302 256
-0.022831906 0.76599997 -0.021488851 3.9479903e-40 303 256
-0.021488851 0.76599997 -0.021488851 5.7739522e-40 304 256
-0.020145798 0.76599997 -0.021488851 5.7739522e-40 305 256
-0.018827293 0.76700002 -0.021516906 8.5290592e-40 306 256
-0.017482487 0.76700002 -0.021516906 7.6071029e-40 307 256
-0.016179759 0.76899999 -0.021573013 3.944459e-40 308 256
-0.014831445 0.76899999 -0.021573013 6.7103279e-40 309 256
-0.013448066 0.76700002 -0.021516906 5.7991055e-40 310 256
-0.01210326 0.76700002 -0.021516906 5.7991055e-40 311 256
-0.010786506 0.76899999 -0.021573013 8.5505551e-40 312 256
-0.0094381925 0.76899999 -0.021573013 8.5505551e-40 313 256
-0.0080898795 0.76899999 -0.021573013 8.5505551e-40 314 256
-0.006724033 0.76700002 -0.021516906 7.6285988e-40 315 256
-0.0053792265 0.76700002 -0.021516906 5.7811129e-40 316 256
-0.00403442 0.76700002 -0.021516906 5.7811129e-40 317 256
-0.0026896133 0.76700002 -0.021516906 3.9480183e-40 318 256
-0.0013448066 0.76700002 -0.021516906 3.9480183e-40 319 256
0 0.76700002 -0.021516906 3.0332507e-40 320 256
0.0013448066 0.76700002 -0.021516906 3.955207e-40 321 256
0.0026896133 0.76700002 -0.021516906 3.9551789e-40 322 256
0.00403442 0.76700002 -0.021516906 4.8771492e-40 323 256
0.0053792265 0.76700002 -0.021516906 7.6286268e-40 324 256
0.006724033 0.76700002 -0.021516906 7.6286268e-40 325 256
0.0080583189 0.76599997 -0.021488851 7.6286268e-40 326 256
0.0094013726 0.76599997 -0.021488851 6.7030692e-40 327 256
0.010744425 0.76599997 -0.021488851 2.8180112e-41 328 256
0.012087479 0.76599997 -0.021488851 2.6020711e-41 329 256
0.013448066 0.76700002 -0.021516906 3.1599294e-39 330 256
0.014792874 0.76700002 -0.021516906 8.322526e-39 331 256
0.01613768 0.76700002 -0.021516906 1.5678337e-38 332 256
0.017482487 0.76700002 -0.021516906 1.6508097e-38 333 256
-0.044031456 0.76099998 -0.022682872 2.7864498e-39 287 257
-0.042697169 0.76099998 -0.022682872 1.7784565e-39 288 257
-0.041254178 0.759 -0.02262326 1.6862595e-39 289 257
-0.0399234 0.759 -0.02262326 1.7759356e-39 290 257
-0.038592618 0.759 -0.02262326 1.3149575e-39 291 257
-0.03726184 0.759 -0.02262326 1.2227618e-39 292 257
-0.035931058 0.759 -0.02262326 1.1305662e-39 293 257
-0.034691449 0.76099998 -0.022682872 1.0383734e-39 294 257
-0.033357166 0.76099998 -0.022682872 1.0383734e-39 295 257
-0.032064959 0.76200002 -0.02271268 7.6250675e-40 296 257
-0.030728921 0.76200002 -0.02271268 7.6250675e-40 297 257
-0.029354304 0.76099998 -0.022682872 4.8699746e-40 298 257
-0.028020019 0.76099998 -0.022682872 3.026062e-40 299 257
-0.026685731 0.76099998 -0.022682872 4.8591566e-40 300 257
-0.02538476 0.76200002 -0.02271268 4.8591566e-40 301 257
-0.024111839 0.764 -0.022772292 4.8627159e-40 302 257
-0.022772292 0.764 -0.022772292 5.7846722e-40 303 257
-0.021432746 0.764 -0.022772292 4.8627159e-40 304 257
-0.020093199 0.764 -0.022772292 4.8627159e-40 305 257
-0.018753653 0.764 -0.022772292 7.6106341e-40 306 257
-0.017414106 0.764 -0.022772292 7.6106341e-40 307 257
-0.016074561 0.764 -0.022772292 5.7811129e-40 308 257
-0.01469644 0.76200002 -0.02271268 5.7811129e-40 309 257
-0.0133604 0.76200002 -0.02271268 8.5397791e-40 310 257
-0.01202436 0.76200002 -0.02271268 9.4617494e-40 311 257
-0.010716373 0.764 -0.022772292 9.4617214e-40 312 257
-0.0093768267 0.764 -0.022772292 9.4617214e-40 313 257
-0.0080372803 0.764 -0.022772292 7.6285707e-40 314 257
-0.0067152665 0.76599997 -0.022831906 6.7066004e-40 315 257
-0.0053722127 0.76599997 -0.022831906 8.5397511e-40 316 257
-0.0040291594 0.76599997 -0.022831906 6.6994398e-40 317 257
-0.0026861064 0.76599997 -0.022831906 8.5397511e-40 318 257
-0.00133604 0.76200002 -0.02271268 8.5397511e-40 319 257
0 0.76200002 -0.02271268 3.9479903e-40 320 257
0.00133604 0.76200002 -0.02271268 4.8699466e-40 321 257
0.00267208 0.76200002 -0.02271268 2.1220563e-40 322 257
0.0040081199 0.76200002 -0.02271268 3.0440266e-40 323 257
0.0053441599 0.76200002 -0.02271268 7.6286268e-40 324 257
0.006697733 0.764 -0.022772292 7.6286268e-40 325 257
0.0080372803 0.764 -0.022772292 9.4617214e-40 326 257
0.0093768267 0.764 -0.022772292 9.4617214e-40 327 257
0.01068832 0.76200002 -0.02271268 7.6358155e-40 328 257
0.01202436 0.76200002 -0.02271268 2.1040777e-40 329 257
0.013448066 0.76700002 -0.022861714 1.2467633e-40 330 257
0.014792874 0.76700002 -0.022861714 3.9046972e-39 331 257
0.01613768 0.76700002 -0.022861714 1.3378501e-38 332 257
-0.045365743 0.76099998 -0.024017159 7.2986308e-39 286 258
-0.043915741 0.759 -0.023954039 3.8873925e-39 287 258
-0.042584959 0.759 -0.023954039 1.5036619e-39 288 258
-0.041145474 0.75700003 -0.02389092 1.4114649e-39 289 258
-0.039818201 0.75700003 -0.02389092 1.5004249e-39 290 258
-0.038490929 0.75700003 -0.02389092 1.3160323e-39 291 258
-0.03726184 0.759 -0.023954039 1.0401656e-39 292 258
-0.035931058 0.759 -0.023954039 8.5577437e-40 293 258
-0.034600276 0.759 -0.023954039 9.4725394e-40 294 258
-0.033269498 0.759 -0.023954039 8.5505831e-40 295 258
-0.031938717 0.759 -0.023954039 4.8771492e-40 296 258
-0.030688593 0.76099998 -0.024017159 3.9551789e-40 297 258
-0.029277159 0.759 -0.023954039 3.0332507e-40 298 258
-0.027946379 0.759 -0.023954039 1.1893521e-40 299 258
-0.026615599 0.759 -0.023954039 3.026062e-40 300 258
-0.025351444 0.76099998 -0.024017159 3.026062e-40 301 258
-0.024017159 0.76099998 -0.024017159 3.026034e-40 302 258
-0.022682872 0.76099998 -0.024017159 3.026034e-40 303 258
-0.02137664 0.76200002 -0.02404872 4.8591566e-40 304 258
-0.0200406 0.76200002 -0.02404872 4.8591566e-40 305 258
-0.01870456 0.76200002 -0.02404872 5.7739242e-40 306 258
-0.01736852 0.76200002 -0.02404872 6.6958805e-40 307 258
-0.016011439 0.76099998 -0.024017159 3.9479903e-40 308 258
-0.014677152 0.76099998 -0.024017159 4.8699466e-40 309 258
-0.013342866 0.76099998 -0.024017159 6.6958805e-40 310 258
-0.01202436 0.76200002 -0.02404872 8.5397791e-40 311 258
-0.010674292 0.76099998 -0.024017159 6.7138031e-40 312 258
-0.0093400059 0.76099998 -0.024017159 6.7138031e-40 313 258
-0.0080162399 0.76200002 -0.02404872 9.4652807e-40 314 258
-0.0066801999 0.76200002 -0.02404872 8.539723e-40 315 258
-0.0053441599 0.76200002 -0.02404872 8.539723e-40 316 258
-0.0040081199 0.76200002 -0.02404872 8.539723e-40 317 258
-0.00267208 0.76200002 -0.02404872 6.7066285e-40 318 258
-0.00133604 0.76200002 -0.02404872 6.7066285e-40 319 258
0 0.76200002 -0.02404872 6.6958805e-40 320 258
0.00133604 0.76200002 -0.02404872 6.6958805e-40 321 258
0.0026685731 0.76099998 -0.024017159 3.0332226e-40 322 258
0.0040028598 0.76099998 -0.024017159 3.0332226e-40 323 258
0.0053371461 0.76099998 -0.024017159 6.6958805e-40 324 258
0.0066714329 0.76099998 -0.024017159 6.6958805e-40 325 258
0.0079846792 0.759 -0.023954039 6.6958805e-40 326 258
0.00931546 0.759 -0.023954039 9.4617494e-40 327 258
0.01064624 0.759 -0.023954039 9.4725394e-40 328 258
0.01202436 0.76200002 -0.02404872 7.6286268e-40 329 258
-0.046700031 0.76099998 -0.025351444 1.5395597e-38 285 259
-0.045246519 0.759 -0.025284819 1.0975288e-38 286 259
-0.043915741 0.759 -0.025284819 6.5498974e-39 287 259
-0.042584959 0.759 -0.025284819 1.3207e-39 288 259
-0.041145474 0.75700003 -0.025218192 8.6008056e-40 289 259
-0.039818201 0.75700003 -0.025218192 9.4976927e-40 290 259
-0.038389232 0.755 -0.025151566 9.4976927e-40 291 259
-0.037065465 0.755 -0.025151566 9.4797e-40 292 259
-0.035741698 0.755 -0.025151566 8.5577437e-40 293 259
-0.034509107 0.75700003 -0.025218192 4.8771492e-40 294 259
-0.033181835 0.75700003 -0.025218192 4.8771492e-40 295 259
-0.031854562 0.75700003 -0.025218192 6.7102999e-40 296 259
-0.030527288 0.75700003 -0.025218192 4.8699746e-40 297 259
-0.029200014 0.75700003 -0.025218192 3.0332507e-40 298 259
-0.027872739 0.75700003 -0.025218192 1.1893521e-40 299 259
-0.026545467 0.75700003 -0.025218192 4.8591846e-40 300 259
-0.025151566 0.755 -0.025151566 3.0188733e-40 301 259
-0.023827799 0.755 -0.025151566 2.7458443e-41 302 259
-0.022504034 0.755 -0.025151566 2.7458443e-41 303 259
-0.021348584 0.76099998 -0.025351444 3.9479903e-40 304 259
-0.020014299 0.76099998 -0.025351444 3.9479903e-40 305 259
-0.018680012 0.76099998 -0.025351444 3.9479622e-40 306 259
-0.017345725 0.76099998 -0.025351444 4.8735059e-40 307 259
-0.015969358 0.759 -0.025284819 4.8771492e-40 308 259
-0.014638579 0.759 -0.025284819 3.9551789e-40 309 259
-0.0133078 0.759 -0.025284819 3.0332226e-40 310 259
-0.012008579 0.76099998 -0.025351444 3.9551789e-40 311 259
-0.01064624 0.759 -0.025284819 1.200072e-40 312 259
-0.00931546 0.759 -0.025284819 2.1220283e-40 313 259
-0.0079846792 0.759 -0.025284819 4.8735059e-40 314 259
-0.0066538998 0.759 -0.025284819 4.8735059e-40 315 259
-0.0053090933 0.75700003 -0.025218192 6.7066285e-40 316 259
-0.0039818203 0.75700003 -0.025218192 7.6285988e-40 317 259
-0.00266156 0.759 -0.025284819 6.7066285e-40 318 259
-0.0013272733 0.75700003 -0.025218192 6.7066285e-40 319 259
0 0.75700003 -0.025218192 5.7739242e-40 320 259
0.0013272733 0.75700003 -0.025218192 6.6958805e-40 321 259
0.0026545466 0.75700003 -0.025218192 5.7739522e-40 322 259
0.0039818203 0.75700003 -0.025218192 5.7739522e-40 323 259
0.0053231199 0.759 -0.025284819 3.026062e-40 324 259
0.0066538998 0.759 -0.025284819 3.9480183e-40 325 259
0.0079636406 0.75700003 -0.025218192 3.9479903e-40 326 259
0.0092909131 0.75700003 -0.025218192 6.7102718e-40 327 259
0.010618187 0.75700003 -0.025218192 3.0440547e-40 328 259
0.01194546 0.75700003 -0.025218192 5.8063222e-40 329 259
-0.046700031 0.76099998 -0.026685731 1.631791e-38 285 260
-0.045246519 0.759 -0.026615599 1.410165e-38 286 260
-0.043800019 0.75700003 -0.026545467 8.5702727e-39 287 260
-0.042472746 0.75700003 -0.026545467 1.4118026e-39 288 260
-0.041036766 0.755 -0.026475333 1.5039982e-39 289 260
-0.039660402 0.75400001 -0.026440267 1.2263548e-39 290 260
-0.038338386 0.75400001 -0.026440267 7.6537661e-40 291 260
-0.037016369 0.75400001 -0.026440267 9.4725394e-40 292 260
-0.035694357 0.75400001 -0.026440267 7.6286268e-40 293 260
-0.034372345 0.75400001 -0.026440267 8.5362198e-40 294 260
-0.033094164 0.755 -0.026475333 8.5362198e-40 295 260
-0.03172832 0.75400001 -0.026440267 4.8699746e-40 296 260
-0.030406307 0.75400001 -0.026440267 3.9480183e-40 297 260
-0.029084291 0.75400001 -0.026440267 3.026062e-40 298 260
-0.027762281 0.75400001 -0.026440267 3.026062e-40 299 260
-0.026475333 0.755 -0.026475333 1.1893801e-40 300 260
-0.025118252 0.75400001 -0.026440267 2.674238e-41 301 260
-0.02379624 0.75400001 -0.026440267 2.674238e-41 302 260
-0.022474226 0.75400001 -0.026440267 3.0296914e-40 303 260
-0.021180267 0.755 -0.026475333 3.0332507e-40 304 260
-0.0199617 0.759 -0.026615599 3.955207e-40 305 260
-0.01863092 0.759 -0.026615599 3.955207e-40 306 260
-0.017254554 0.75700003 -0.026545467 4.8771773e-40 307 260
-0.015885198 0.755 -0.026475333 4.8699746e-40 308 260
-0.014561433 0.755 -0.026475333 3.9480183e-40 309 260
-0.013237666 0.755 -0.026475333 4.8627159e-40 310 260
-0.011913899 0.755 -0.026475333 4.8627159e-40 311 260
-0.010590133 0.755 -0.026475333 3.0295652e-40 312 260
-0.0092663663 0.755 -0.026475333 3.9515215e-40 313 260
-0.0079425992 0.755 -0.026475333 8.5325344e-40 314 260
-0.0066188332 0.755 -0.026475333 9.458078e-40 315 260
-0.0052950666 0.755 -0.026475333 4.8734778e-40 316 260
-0.0039712996 0.755 -0.026475333 4.8734778e-40 317 260
-0.0026545466 0.75700003 -0.026545467 8.5397511e-40 318 260
-0.0013237667 0.755 -0.026475333 5.7774835e-40 319 260
0 0.755 -0.026475333 5.7739522e-40 320 260
0.0013237667 0.755 -0.026475333 5.7739522e-40 321 260
0.0026475333 0.755 -0.026475333 6.6851185e-40 322 260
0.0039712996 0.755 -0.026475333 7.6070748e-40 323 260
0.0052950666 0.755 -0.026475333 3.9479903e-40 324 260
0.0066188332 0.755 -0.026475333 3.9479903e-40 325 260
0.0079425992 0.755 -0.026475333 3.9551789e-40 326 260
0.0092663663 0.755 -0.026475333 3.9551789e-40 327 260
0.010590133 0.755 -0.026475333 7.6358155e-40 328 260
0.011913899 0.755 -0.026475333 8.5577718e-40 329 260
-0.046454567 0.75700003 -0.027872739 1.6685611e-38 285 261
-0.045127295 0.75700003 -0.027872739 1.5482407e-38 286 261
-0.043684296 0.755 -0.027799098 1.0226898e-38 287 261
-0.042304426 0.75400001 -0.027762281 3.7991598e-39 288 261
-0.040982414 0.75400001 -0.027762281 3.5225729e-39 289 261
-0.039555199 0.75199997 -0.027688639 1.5929765e-39 290 261
-0.038236689 0.75199997 -0.027688639 1.3160295e-39 291 261
-0.036918186 0.75199997 -0.027688639 8.5505831e-40 292 261
-0.035599679 0.75199997 -0.027688639 7.6286268e-40 293 261
-0.034281172 0.75199997 -0.027688639 3.944459e-40 294 261
-0.032962665 0.75199997 -0.027688639 3.944459e-40 295 261
-0.031644158 0.75199997 -0.027688639 3.0332507e-40 296 261
-0.030325651 0.75199997 -0.027688639 3.0332507e-40 297 261
-0.029007144 0.75199997 -0.027688639 6.6959085e-40 298 261
-0.027688639 0.75199997 -0.027688639 6.6959085e-40 299 261
-0.02637013 0.75199997 -0.027688639 6.6959085e-40 300 261
-0.025051624 0.75199997 -0.027688639 5.7739522e-40 301 261
-0.023733119 0.75199997 -0.027688639 3.026062e-40 302 261
-0.022474226 0.75400001 -0.027762281 3.9480183e-40 303 261
-0.021180267 0.755 -0.027799098 3.0296914e-40 304 261
-0.0198565 0.755 -0.027799098 3.0296914e-40 305 261
-0.018581826 0.75700003 -0.027872739 3.0296914e-40 306 261
-0.017208965 0.755 -0.027799098 3.0296914e-40 307 261
-0.01586416 0.75400001 -0.027762281 3.9480183e-40 308 261
-0.014503572 0.75199997 -0.027688639 3.9480183e-40 309 261
-0.01315 0.75 -0.027615 5.7774835e-40 310 261
-0.011835 0.75 -0.027615 5.7774835e-40 311 261
-0.01052 0.75 -0.027615 7.6106061e-40 312 261
-0.0092295464 0.75199997 -0.027688639 6.6886498e-40 313 261
-0.00793208 0.75400001 -0.027762281 5.7774835e-40 314 261
-0.0066100666 0.75400001 -0.027762281 5.7774835e-40 315 261
-0.0052880533 0.75400001 -0.027762281 3.026034e-40 316 261
-0.00396604 0.75400001 -0.027762281 3.9479903e-40 317 261
-0.0026440267 0.75400001 -0.027762281 3.026034e-40 318 261
-0.0013220133 0.75400001 -0.027762281 3.026034e-40 319 261
0 0.75400001 -0.027762281 5.7739242e-40 320 261
0.0013220133 0.75400001 -0.027762281 5.7739242e-40 321 261
0.0026370131 0.75199997 -0.027688639 7.6106341e-40 322 261
0.0039555198 0.75199997 -0.027688639 7.6106341e-40 323 261
0.0052880533 0.75400001 -0.027762281 3.026034e-40 324 261
0.0066100666 0.75400001 -0.027762281 3.9479903e-40 325 261
0.0079110395 0.75199997 -0.027688639 1.1965407e-40 326 261
0.0092295464 0.75199997 -0.027688639 3.0440547e-40 327 261
0.010548052 0.75199997 -0.027688639 6.7102999e-40 328 261
0.011835 0.75 -0.027615 7.6322562e-40 329 261
0.01315 0.75 -0.027615 3.0440547e-40 330 261
0.014503572 0.75199997 -0.027688639 2.709831e-41 331 261
0.015822079 0.75199997 -0.027688639 2.8883564e-41 332 261
0.017140586 0.75199997 -0.027688639 1.6023301e-39 333 261
-0.046270464 0.75400001 -0.029084291 1.6778528e-38 285 262
-0.044948451 0.75400001 -0.029084291 1.6311436e-38 286 262
-0.043626439 0.75400001 -0.029084291 1.1609459e-38 287 262
-0.04219221 0.75199997 -0.029007144 6.0968436e-39 288 262
-0.040873703 0.75199997 -0.029007144 5.0830518e-39 289 262
-0.039449997 0.75 -0.028929999 1.5936953e-39 290 262
-0.038135 0.75 -0.028929999 1.1327172e-39 291 262
-0.036770906 0.74900001 -0.028891427 7.6357874e-40 292 262
-0.03545766 0.74900001 -0.028891427 6.7138311e-40 293 262
-0.034144413 0.74900001 -0.028891427 2.1220563e-40 294 262
-0.032874998 0.75 -0.028929999 2.1220563e-40 295 262
-0.03156 0.75 -0.028929999 3.9551789e-40 296 262
-0.030244999 0.75 -0.028929999 3.9551789e-40 297 262
-0.028929999 0.75 -0.028929999 6.7030692e-40 298 262
-0.027615 0.75 -0.028929999 6.7030692e-40 299 262
-0.0263 0.75 -0.028929999 6.7030692e-40 300 262
-0.024984999 0.75 -0.028929999 5.7811129e-40 301 262
-0.023669999 0.75 -0.028929999 3.0332507e-40 302 262
-0.022355 0.75 -0.028929999 3.0332507e-40 303 262
-0.021152213 0.75400001 -0.029084291 3.026062e-40 304 262
-0.019830201 0.75400001 -0.029084291 3.026062e-40 305 262
-0.018508185 0.75400001 -0.029084291 3.0332507e-40 306 262
-0.017140586 0.75199997 -0.029007144 1.1893521e-40 307 262
-0.01578 0.75 -0.028929999 4.8591846e-40 308 262
-0.014465 0.75 -0.028929999 4.8591846e-40 309 262
-0.013132467 0.74900001 -0.028891427 3.9479622e-40 310 262
-0.01181922 0.74900001 -0.028891427 3.0260059e-40 311 262
-0.010505973 0.74900001 -0.028891427 5.7846441e-40 312 262
-0.0092049995 0.75 -0.028929999 4.8626878e-40 313 262
-0.00789 0.75 -0.028929999 4.8555272e-40 314 262
-0.006575 0.75 -0.028929999 5.7774835e-40 315 262
-0.00526 0.75 -0.028929999 4.8591566e-40 316 262
-0.003945 0.75 -0.028929999 3.0188453e-40 317 262
-0.00263 0.75 -0.028929999 4.8591566e-40 318 262
-0.0013185065 0.75199997 -0.029007144 4.8591566e-40 319 262
0 0.75 -0.028929999 4.8591566e-40 320 262
0.001315 0.75 -0.028929999 4.8591566e-40 321 262
0.0026264933 0.74900001 -0.028891427 5.7739242e-40 322 262
0.0039397399 0.74900001 -0.028891427 5.7739242e-40 323 262
0.00526 0.75 -0.028929999 3.9479903e-40 324 262
0.006575 0.75 -0.028929999 3.9479903e-40 325 262
0.00789 0.75 -0.028929999 3.9551789e-40 326 262
0.0092049995 0.75 -0.028929999 3.9551789e-40 327 262
0.01052 0.75 -0.028929999 6.7030692e-40 328 262
0.01181922 0.74900001 -0.028891427 7.6286268e-40 329 262
0.013132467 0.74900001 -0.028891427 9.4725394e-40 330 262
0.014445714 0.74900001 -0.028891427 7.6286268e-40 331 262
0.01575896 0.74900001 -0.028891427 2.5297641e-41 332 262
0.017072206 0.74900001 -0.028891427 3.9912063e-40 333 262
0.018385453 0.74900001 -0.028891427 1.2272529e-38 334 262
0.0196987 0.74900001 -0.028891427 1.4393028e-38 335 262
-0.044948451 0.75400001 -0.030406307 1.6036995e-38 286 263
-0.043626439 0.75400001 -0.030406307 1.2441725e-38 287 263
-0.04219221 0.75199997 -0.030325651 9.4969136e-39 288 263
-0.040764999 0.75 -0.030244999 7.4686097e-39 289 263
-0.039449997 0.75 -0.030244999 1.5944086e-39 290 263
-0.038084153 0.74900001 -0.030204674 1.2259862e-39 291 263
-0.036672719 0.74699998 -0.030124018 5.8098535e-40 292 263
-0.035362978 0.74699998 -0.030124018 3.9695422e-40 293 263
-0.034053236 0.74699998 -0.030124018 3.0440266e-40 294 263
-0.032743499 0.74699998 -0.030124018 3.0440266e-40 295 263
-0.031433757 0.74699998 -0.030124018 4.8771492e-40 296 263
-0.030124018 0.74699998 -0.030124018 4.8771492e-40 297 263
-0.028814279 0.74699998 -0.030124018 4.8699466e-40 298 263
-0.027504537 0.74699998 -0.030124018 4.8699466e-40 299 263
-0.026264934 0.74900001 -0.030204674 6.7030692e-40 300 263
-0.024885058 0.74699998 -0.030124018 5.7811129e-40 301 263
-0.023575317 0.74699998 -0.030124018 3.026062e-40 302 263
-0.022265578 0.74699998 -0.030124018 3.026062e-40 303 263
-0.021011947 0.74900001 -0.030204674 3.015314e-40 304 263
-0.0196987 0.74900001 -0.030204674 3.015314e-40 305 263
-0.018385453 0.74900001 -0.030204674 1.1893801e-40 306 263
-0.017072206 0.74900001 -0.030204674 2.674238e-41 307 263
-0.015716879 0.74699998 -0.030124018 2.1005184e-40 308 263
-0.014407139 0.74699998 -0.030124018 2.1005184e-40 309 263
-0.013097399 0.74699998 -0.030124018 3.026034e-40 310 263
-0.011787659 0.74699998 -0.030124018 3.9479903e-40 311 263
-0.010477919 0.74699998 -0.030124018 3.9479622e-40 312 263
-0.0091681797 0.74699998 -0.030124018 3.0260059e-40 313 263
-0.0078794798 0.74900001 -0.030204674 5.7739242e-40 314 263
-0.0065662335 0.74900001 -0.030204674 4.8519679e-40 315 263
-0.0052529867 0.74900001 -0.030204674 2.1005184e-40 316 263
-0.003945 0.75 -0.030244999 1.1785621e-40 317 263
-0.00263 0.75 -0.030244999 2.1040777e-40 318 263
-0.001315 0.75 -0.030244999 3.026034e-40 319 263
0 0.74900001 -0.030204674 4.8591566e-40 320 263
0.0013132467 0.74900001 -0.030204674 4.8591566e-40 321 263
0.0026264933 0.74900001 -0.030204674 4.8591566e-40 322 263
0.0039397399 0.74900001 -0.030204674 5.7811129e-40 323 263
0.0052529867 0.74900001 -0.030204674 3.9479903e-40 324 263
0.0065662335 0.74900001 -0.030204674 4.8699466e-40 325 263
0.0078794798 0.74900001 -0.030204674 6.7030692e-40 326 263
0.0091927266 0.74900001 -0.030204674 6.7030692e-40 327 263
0.010505973 0.74900001 -0.030204674 8.5397511e-40 328 263
0.01181922 0.74900001 -0.030204674 8.5397511e-40 329 263
0.013132467 0.74900001 -0.030204674 6.7102718e-40 330 263
0.014407139 0.74699998 -0.030124018 7.6358155e-40 331 263
0.015716879 0.74699998 -0.030124018 2.7101112e-41 332 263
0.017026618 0.74699998 -0.030124018 2.7819978e-41 333 263
0.018336359 0.74699998 -0.030124018 7.3036881e-39 334 263
0.019646099 0.74699998 -0.030124018 1.1175905e-38 335 263
0.020955838 0.74699998 -0.030124018 1.6689962e-38 336 263
-0.04351072 0.75199997 -0.031644158 1.3453705e-38 287 264
-0.04219221 0.75199997 -0.031644158 1.1427609e-38 288 264
-0.040764999 0.75 -0.03156 8.846131e-39 289 264
-0.0393974 0.74900001 -0.031517919 2.2379689e-39 290 264
-0.03798246 0.74699998 -0.031433757 1.9613834e-39 291 264
-0.036623627 0.74599999 -0.031391677 8.5792537e-40 292 264
-0.03512628 0.74199998 -0.031223357 6.7353411e-40 293 264
-0.033825304 0.74199998 -0.031223357 5.8026648e-40 294 264
-0.032524332 0.74199998 -0.031223357 4.8807085e-40 295 264
-0.031223357 0.74199998 -0.031223357 6.7102718e-40 296 264
-0.029922385 0.74199998 -0.031223357 4.8699466e-40 297 264
-0.02869856 0.74400002 -0.031307522 3.0332226e-40 298 264
-0.027394081 0.74400002 -0.031307522 3.0332226e-40 299 264
-0.026089599 0.74400002 -0.031307522 4.8591566e-40 300 264
-0.02478512 0.74400002 -0.031307522 4.8591566e-40 301 264
-0.023480639 0.74400002 -0.031307522 4.8591566e-40 302 264
-0.022176161 0.74400002 -0.031307522 4.8591566e-40 303 264
-0.020955838 0.74699998 -0.031433757 4.8519959e-40 304 264
-0.019646099 0.74699998 -0.031433757 3.9300396e-40 305 264
-0.018336359 0.74699998 -0.031433757 2.1005184e-40 306 264
-0.017026618 0.74699998 -0.031433757 2.1005184e-40 307 264
-0.015716879 0.74699998 -0.031433757 3.0188733e-40 308 264
-0.014407139 0.74699998 -0.031433757 4.8591846e-40 309 264
-0.013097399 0.74699998 -0.031433757 3.0332226e-40 310 264
-0.011771879 0.74599999 -0.031391677 3.0332226e-40 311 264
-0.010463892 0.74599999 -0.031391677 5.7811129e-40 312 264
-0.0091681797 0.74699998 -0.031433757 4.8591566e-40 313 264
-0.0078584393 0.74699998 -0.031433757 4.8591566e-40 314 264
-0.0065486995 0.74699998 -0.031433757 4.8591566e-40 315 264
-0.0052389596 0.74699998 -0.031433757 1.1928833e-40 316 264
-0.0039397399 0.74900001 -0.031517919 1.1928833e-40 317 264
-0.0026264933 0.74900001 -0.031517919 4.8591566e-40 318 264
-0.0013132467 0.74900001 -0.031517919 3.0188453e-40 319 264
0 0.74699998 -0.031433757 5.7739242e-40 320 264
0.0013097399 0.74699998 -0.031433757 5.7739242e-40 321 264
0.0026194798 0.74699998 -0.031433757 4.8591566e-40 322 264
0.0039292197 0.74699998 -0.031433757 5.7811129e-40 323 264
0.0052389596 0.74699998 -0.031433757 5.7811129e-40 324 264
0.0065486995 0.74699998 -0.031433757 6.7030692e-40 325 264
0.0078584393 0.74699998 -0.031433757 8.5397511e-40 326 264
0.0091681797 0.74699998 -0.031433757 8.5397511e-40 327 264
0.010477919 0.74699998 -0.031433757 8.5397511e-40 328 264
0.011787659 0.74699998 -0.031433757 9.4617214e-40 329 264
0.013097399 0.74699998 -0.031433757 1.0383706e-39 330 264
0.014387853 0.74599999 -0.031391677 1.1305662e-39 331 264
0.015695838 0.74599999 -0.031391677 4.873646e-40 332 264
0.017003827 0.74599999 -0.031391677 2.6026316e-41 333 264
0.018311813 0.74599999 -0.031391677 1.0495109e-39 334 264
0.019619798 0.74599999 -0.031391677 5.7511279e-39 335 264
0.020955838 0.74699998 -0.031433757 1.5494315e-38 336 264
-0.04351072 0.75199997 -0.032962665 1.4098709e-38 287 265
-0.04219221 0.75199997 -0.032962665 1.2531421e-38 288 265
-0.040764999 0.75 -0.032874998 9.5808023e-39 289 265
-0.0393974 0.74900001 -0.032831166 1.8716919e-39 290 265
-0.03793161 0.74599999 -0.032699663 1.8716919e-39 291 265
-0.036427252 0.74199998 -0.032524332 7.675262e-40 292 265
-0.035078939 0.741 -0.032480497 2.1471115e-40 293 265
-0.033688545 0.73900002 -0.032392833 5.8026368e-40 294 265
-0.032392833 0.73900002 -0.032392833 4.8806805e-40 295 265
-0.03109712 0.73900002 -0.032392833 4.8807085e-40 296 265
-0.029801406 0.73900002 -0.032392833 3.9551509e-40 297 265
-0.028582839 0.741 -0.032480497 3.0332226e-40 298 265
-0.027283618 0.741 -0.032480497 1.1929114e-40 299 265
-0.025984399 0.741 -0.032480497 5.7739242e-40 300 265
-0.024685178 0.741 -0.032480497 5.7739242e-40 301 265
-0.023385961 0.741 -0.032480497 4.8591566e-40 302 265
-0.02208674 0.741 -0.032480497 4.8591566e-40 303 265
-0.02087168 0.74400002 -0.032612 3.9300116e-40 304 265
-0.019567199 0.74400002 -0.032612 3.0080553e-40 305 265
-0.01826272 0.74400002 -0.032612 3.9300116e-40 306 265
-0.016958239 0.74400002 -0.032612 4.8519679e-40 307 265
-0.015653761 0.74400002 -0.032612 3.0188453e-40 308 265
-0.01434928 0.74400002 -0.032612 3.0188453e-40 309 265
-0.0130448 0.74400002 -0.032612 3.9479622e-40 310 265
-0.011740319 0.74400002 -0.032612 3.9479622e-40 311 265
-0.01043584 0.74400002 -0.032612 3.026034e-40 312 265
-0.009106813 0.74199998 -0.032524332 3.026034e-40 313 265
-0.0078058392 0.74199998 -0.032524332 4.8591566e-40 314 265
-0.0065048663 0.74199998 -0.032524332 4.8591566e-40 315 265
-0.0052179201 0.74400002 -0.032612 1.1929114e-40 316 265
-0.0039239596 0.74599999 -0.032699663 1.1929114e-40 317 265
-0.0026159731 0.74599999 -0.032699663 5.7739242e-40 318 265
-0.0013079866 0.74599999 -0.032699663 4.8519679e-40 319 265
0 0.74599999 -0.032699663 7.6034174e-40 320 265
0.0013079866 0.74599999 -0.032699663 7.6034174e-40 321 265
0.0026159731 0.74599999 -0.032699663 4.8555272e-40 322 265
0.0039239596 0.74599999 -0.032699663 5.7774835e-40 323 265
0.0052319462 0.74599999 -0.032699663 5.7774835e-40 324 265
0.0065223998 0.74400002 -0.032612 6.6994398e-40 325 265
0.0078268806 0.74400002 -0.032612 6.6994398e-40 326 265
0.009106813 0.74199998 -0.032524332 6.6994398e-40 327 265
0.010407786 0.74199998 -0.032524332 8.5397511e-40 328 265
0.011740319 0.74400002 -0.032612 8.5397511e-40 329 265
0.0130448 0.74400002 -0.032612 1.0383678e-39 330 265
0.014310705 0.74199998 -0.032524332 1.0383678e-39 331 265
0.015611678 0.74199998 -0.032524332 9.4725674e-40 332 265
0.016912652 0.74199998 -0.032524332 4.8591846e-40 333 265
0.01826272 0.74400002 -0.032612 3.03255e-41 334 265
0.019567199 0.74400002 -0.032612 2.1558669e-39 335 265
0.020955838 0.74699998 -0.032743499 1.1813703e-38 336 265
-0.039239597 0.74599999 -0.034007654 3.8906323e-39 290 266
-0.03793161 0.74599999 -0.034007654 3.6140468e-39 291 266
-0.036279973 0.73900002 -0.033688545 1.4103775e-39 292 266
-0.034984261 0.73900002 -0.033688545 1.1337906e-39 293 266
-0.033642959 0.73799998 -0.033642959 7.6393187e-40 294 266
-0.032348998 0.73799998 -0.033642959 7.6393187e-40 295 266
-0.031055039 0.73799998 -0.033642959 6.7138311e-40 296 266
-0.029761078 0.73799998 -0.033642959 4.8735059e-40 297 266
-0.028467119 0.73799998 -0.033642959 3.0332226e-40 298 266
-0.027173158 0.73799998 -0.033642959 1.1929114e-40 299 266
-0.025879199 0.73799998 -0.033642959 1.1929114e-40 300 266
-0.024618553 0.73900002 -0.033688545 1.1929114e-40 301 266
-0.023322839 0.73900002 -0.033688545 7.6034174e-40 302 266
-0.022027127 0.73900002 -0.033688545 8.5253737e-40 303 266
-0.020787518 0.741 -0.033779722 6.6886498e-40 304 266
-0.019488299 0.741 -0.033779722 4.8483385e-40 305 266
-0.018213626 0.74199998 -0.033825304 1.1821214e-40 306 266
-0.016912652 0.74199998 -0.033825304 1.1821214e-40 307 266
-0.015611678 0.74199998 -0.033825304 2.6376641e-41 308 266
-0.014310705 0.74199998 -0.033825304 2.6376641e-41 309 266
-0.013009733 0.74199998 -0.033825304 3.0188453e-40 310 266
-0.01169298 0.741 -0.033779722 4.8591566e-40 311 266
-0.010393759 0.741 -0.033779722 5.7739242e-40 312 266
-0.0090945391 0.741 -0.033779722 5.7739242e-40 313 266
-0.0077742799 0.73900002 -0.033688545 4.8591846e-40 314 266
-0.0064697997 0.73799998 -0.033642959 3.0188733e-40 315 266
-0.0051758396 0.73799998 -0.033642959 2.6739577e-41 316 266
-0.0038818798 0.73799998 -0.033642959 2.6739577e-41 317 266
-0.0025914267 0.73900002 -0.033688545 3.0188453e-40 318 266
-0.00130448 0.74400002 -0.033916477 3.0188453e-40 319 266
0 0.74199998 -0.033825304 4.8555272e-40 320 266
0.0013009732 0.74199998 -0.033825304 4.8555272e-40 321 266
0.0026019465 0.74199998 -0.033825304 6.6886498e-40 322 266
0.0039029196 0.74199998 -0.033825304 6.6886498e-40 323 266
0.0052038929 0.74199998 -0.033825304 4.8519679e-40 324 266
0.0065048663 0.74199998 -0.033825304 6.6958805e-40 325 266
0.0078058392 0.74199998 -0.033825304 5.7846722e-40 326 266
0.0090945391 0.741 -0.033779722 6.7066285e-40 327 266
0.010393759 0.741 -0.033779722 6.7066285e-40 328 266
0.01169298 0.741 -0.033779722 6.7066285e-40 329 266
0.0129922 0.741 -0.033779722 6.7102718e-40 330 266
0.01429142 0.741 -0.033779722 6.7102718e-40 331 266
0.01554856 0.73900002 -0.033688545 7.6358155e-40 332 266
0.016844273 0.73900002 -0.033688545 6.7102718e-40 333 266
0.018139986 0.73900002 -0.033688545 2.7810169e-41 334 266
0.0194357 0.73900002 -0.033688545 3.3213576e-41 335 266
0.020927785 0.74599999 -0.034007654 6.2016565e-39 336 266
-0.039514873 0.727 -0.03441618 1.2435592e-38 289 267
-0.038555797 0.73299998 -0.034700219 6.4645387e-39 290 267
-0.037270606 0.73299998 -0.034700219 5.4500267e-39 291 267
-0.035985414 0.73299998 -0.034700219 1.2277813e-39 292 267
-0.034842238 0.736 -0.034842238 8.5899876e-40 293 267
-0.033551786 0.736 -0.034842238 3.0511873e-40 294 267
-0.032261331 0.736 -0.034842238 1.2072607e-40 295 267
-0.030970879 0.736 -0.034842238 6.7030692e-40 296 267
-0.029680425 0.736 -0.034842238 5.7811129e-40 297 267
-0.028389972 0.736 -0.034842238 1.2001e-40 298 267
-0.02709952 0.736 -0.034842238 2.7814373e-41 299 267
-0.025809066 0.736 -0.034842238 4.8591846e-40 300 267
-0.024518613 0.736 -0.034842238 4.8591846e-40 301 267
-0.023228159 0.736 -0.034842238 5.7739242e-40 302 267
-0.021937706 0.736 -0.034842238 5.7739242e-40 303 267
-0.020731414 0.73900002 -0.034984261 3.0188173e-40 304 267
-0.0194357 0.73900002 -0.034984261 2.096861e-40 305 267
-0.018139986 0.73900002 -0.034984261 1.1820933e-40 306 267
-0.016844273 0.73900002 -0.034984261 2.6013705e-41 307 267
-0.01559064 0.741 -0.035078939 1.1820933e-40 308 267
-0.014252847 0.73900002 -0.034984261 2.1040496e-40 309 267
-0.012957133 0.73900002 -0.034984261 4.8591566e-40 310 267
-0.011645639 0.73799998 -0.034936916 4.8591566e-40 311 267
-0.010351679 0.73799998 -0.034936916 4.8591846e-40 312 267
-0.0090699932 0.73900002 -0.034984261 4.8591846e-40 313 267
-0.0077637597 0.73799998 -0.034936916 2.1005184e-40 314 267
-0.0064522666 0.736 -0.034842238 2.1005184e-40 315 267
-0.005161813 0.736 -0.034842238 2.6739577e-41 316 267
-0.0038713599 0.736 -0.034842238 2.6739577e-41 317 267
-0.0025809065 0.736 -0.034842238 1.1821214e-40 318 267
-0.0012904532 0.736 -0.034842238 2.1040777e-40 319 267
0 0.73400003 -0.03474756 2.7092705e-41 320 267
0.0012869467 0.73400003 -0.03474756 2.7092705e-41 321 267
0.0025738934 0.73400003 -0.03474756 6.6886498e-40 322 267
0.0038608401 0.73400003 -0.03474756 6.6886498e-40 323 267
0.0051477868 0.73400003 -0.03474756 3.026034e-40 324 267
0.006434733 0.73400003 -0.03474756 3.9479903e-40 325 267
0.0077742799 0.73900002 -0.034984261 4.8735059e-40 326 267
0.0090699932 0.73900002 -0.034984261 4.8735059e-40 327 267
0.010365707 0.73900002 -0.034984261 6.7066004e-40 328 267
0.011645639 0.73799998 -0.034936916 6.7066004e-40 329 267
0.012939599 0.73799998 -0.034936916 8.5397511e-40 330 267
0.014233559 0.73799998 -0.034936916 8.5397511e-40 331 267
0.015485439 0.736 -0.034842238 1.1287641e-39 332 267
0.016730307 0.73400003 -0.03474756 1.3135155e-39 333 267
0.018017253 0.73400003 -0.03474756 8.5470518e-40 334 267
0.019304199 0.73400003 -0.03474756 4.8556253e-40 335 267
0.020647252 0.736 -0.034842238 3.6430957e-41 336 267
0.021937706 0.736 -0.034842238 3.9140494e-39 337 267
-0.040789545 0.727 -0.035690852 1.5015621e-38 288 268
-0.039514873 0.727 -0.035690852 1.3724882e-38 289 268
-0.038240198 0.727 -0.035690852 8.211567e-39 290 268
-0.037118066 0.73000002 -0.035838135 6.1832631e-39 291 268
-0.035887226 0.73100001 -0.035887226 1.6869574e-39 292 268
-0.034605537 0.73100001 -0.035887226 1.4107306e-39 293 268
-0.033415023 0.73299998 -0.035985414 7.6501087e-40 294 268
-0.032129832 0.73299998 -0.035985414 5.8061961e-40 295 268
-0.030844638 0.73299998 -0.035985414 4.8735059e-40 296 268
-0.029599773 0.73400003 -0.036034506 4.8735059e-40 297 268
-0.028312827 0.73400003 -0.036034506 6.7030692e-40 298 268
-0.026989058 0.73299998 -0.035985414 4.8591566e-40 299 268
-0.025703866 0.73299998 -0.035985414 3.026062e-40 300 268
-0.024451986 0.73400003 -0.036034506 2.1005184e-40 301 268
-0.023165042 0.73400003 -0.036034506 4.8591566e-40 302 268
-0.021878093 0.73400003 -0.036034506 3.0188453e-40 303 268
-0.020647252 0.736 -0.036132693 3.9299836e-40 304 268
-0.019356798 0.736 -0.036132693 3.9299836e-40 305 268
-0.018066347 0.736 -0.036132693 3.0080273e-40 306 268
-0.016775893 0.736 -0.036132693 3.0080273e-40 307 268
-0.015527519 0.73799998 -0.036230877 2.6016507e-41 308 268
-0.014233559 0.73799998 -0.036230877 2.6376641e-41 309 268
-0.012939599 0.73799998 -0.036230877 2.1005184e-40 310 268
-0.011645639 0.73799998 -0.036230877 3.026062e-40 311 268
-0.010351679 0.73799998 -0.036230877 7.6070748e-40 312 268
-0.0090577193 0.73799998 -0.036230877 6.6851185e-40 313 268
-0.0077427197 0.736 -0.036132693 5.7739522e-40 314 268
-0.0064522666 0.736 -0.036132693 5.7739522e-40 315 268
-0.0051477868 0.73400003 -0.036034506 3.0188733e-40 316 268
-0.0038608401 0.73400003 -0.036034506 3.0188733e-40 317 268
-0.0025738934 0.73400003 -0.036034506 2.745424e-41 318 268
-0.0012869467 0.73400003 -0.036034506 2.745424e-41 319 268
0 0.73299998 -0.035985414 2.7092705e-41 320 268
0.0012851933 0.73299998 -0.035985414 2.7092705e-41 321 268
0.0025703865 0.73299998 -0.035985414 4.8555272e-40 322 268
0.0038555798 0.73299998 -0.035985414 5.7774835e-40 323 268
0.005140773 0.73299998 -0.035985414 1.1929114e-40 324 268
0.0064259665 0.73299998 -0.035985414 3.0332226e-40 325 268
0.0077111595 0.73299998 -0.035985414 5.7846722e-40 326 268
0.0090086265 0.73400003 -0.036034506 5.7846722e-40 327 268
0.010295574 0.73400003 -0.036034506 8.5325624e-40 328 268
0.011582521 0.73400003 -0.036034506 8.5325624e-40 329 268
0.012869466 0.73400003 -0.036034506 6.6994398e-40 330 268
0.014194986 0.736 -0.036132693 6.6994398e-40 331 268
0.01544336 0.73400003 -0.036034506 8.5362198e-40 332 268
0.016707512 0.73299998 -0.035985414 9.4581901e-40 333 268
0.017992707 0.73299998 -0.035985414 8.5542405e-40 334 268
0.019225299 0.73100001 -0.035887226 6.7103279e-40 335 268
0.020506985 0.73100001 -0.035887226 3.0321296e-41 336 268
0.021848286 0.73299998 -0.035985414 1.9725518e-39 337 268
-0.041774917 0.722 -0.03671129 1.4284893e-38 287 269
-0.040509012 0.722 -0.03671129 1.5476228e-38 288 269
-0.039406165 0.72500002 -0.036863834 1.455427e-38 289 269
-0.038135 0.72500002 -0.036863834 1.004899e-38 290 269
-0.036965527 0.727 -0.036965527 7.6522625e-39 291 269
-0.035739943 0.72799999 -0.037016369 2.147567e-39 292 269
-0.034558199 0.73000002 -0.037118066 1.7791432e-39 293 269
-0.033323854 0.73100001 -0.037168913 8.5792256e-40 294 269
-0.032042164 0.73100001 -0.037168913 5.8133567e-40 295 269
-0.03076048 0.73100001 -0.037168913 4.8771492e-40 296 269
-0.029478792 0.73100001 -0.037168913 3.9551789e-40 297 269
-0.028197108 0.73100001 -0.037168913 5.7811129e-40 298 269
-0.026915418 0.73100001 -0.037168913 4.8591566e-40 299 269
-0.025633732 0.73100001 -0.037168913 3.0188173e-40 300 269
-0.024352046 0.73100001 -0.037168913 3.0188173e-40 301 269
-0.023133477 0.73299998 -0.037270606 4.8447792e-40 302 269
-0.021848286 0.73299998 -0.037270606 4.8447792e-40 303 269
-0.020591147 0.73400003 -0.037321456 4.8483385e-40 304 269
-0.019304199 0.73400003 -0.037321456 4.8483385e-40 305 269
-0.018017253 0.73400003 -0.037321456 3.9335429e-40 306 269
-0.016730307 0.73400003 -0.037321456 3.9335429e-40 307 269
-0.01544336 0.73400003 -0.037321456 2.5657775e-41 308 269
-0.014156413 0.73400003 -0.037321456 1.1821214e-40 309 269
-0.012869466 0.73400003 -0.037321456 4.8519959e-40 310 269
-0.011582521 0.73400003 -0.037321456 5.7739522e-40 311 269
-0.010295574 0.73400003 -0.037321456 6.6850905e-40 312 269
-0.0090086265 0.73400003 -0.037321456 6.6850905e-40 313 269
-0.0077216802 0.73400003 -0.037321456 4.8519959e-40 314 269
-0.006434733 0.73400003 -0.037321456 4.8519959e-40 315 269
-0.005140773 0.73299998 -0.037270606 3.026062e-40 316 269
-0.0038555798 0.73299998 -0.037270606 3.026062e-40 317 269
-0.0025703865 0.73299998 -0.037270606 2.7095507e-41 318 269
-0.0012851933 0.73299998 -0.037270606 2.7095507e-41 319 269
0 0.73100001 -0.037168913 1.1929114e-40 320 269
0.0012816866 0.73100001 -0.037168913 2.7095507e-41 321 269
0.0025633732 0.73100001 -0.037168913 3.0188173e-40 322 269
0.0038555798 0.73299998 -0.037270606 4.8627159e-40 323 269
0.0051267464 0.73100001 -0.037168913 1.200072e-40 324 269
0.006408433 0.73100001 -0.037168913 2.7811571e-41 325 269
0.00769012 0.73100001 -0.037168913 5.7739242e-40 326 269
0.0089718066 0.73100001 -0.037168913 5.7739242e-40 327 269
0.010253493 0.73100001 -0.037168913 4.8591566e-40 328 269
0.011566739 0.73299998 -0.037270606 4.8591566e-40 329 269
0.012851933 0.73299998 -0.037270606 6.7030692e-40 330 269
0.014137126 0.73299998 -0.037270606 6.7030692e-40 331 269
0.015422319 0.73299998 -0.037270606 8.5397791e-40 332 269
0.016661927 0.73100001 -0.037168913 8.5397791e-40 333 269
0.017919067 0.73000002 -0.037118066 7.6250955e-40 334 269
0.019199001 0.73000002 -0.037118066 6.7031252e-40 335 269
0.020422826 0.72799999 -0.037016369 2.8536042e-41 336 269
0.021669446 0.727 -0.036965527 3.3938048e-41 337 269
0.022944121 0.727 -0.036965527 3.0774322e-39 338 269
-0.040509012 0.722 -0.0379772 1.5659893e-38 288 270
-0.039406165 0.72500002 -0.038135 1.5199273e-38 289 270
-0.038135 0.72500002 -0.038135 1.2254829e-38 290 270
-0.036965527 0.727 -0.038240198 9.6733511e-39 291 270
-0.035739943 0.72799999 -0.038292799 3.8920771e-39 292 270
-0.034558199 0.73000002 -0.038398001 3.4311003e-39 293 270
-0.033323854 0.73100001 -0.038450599 1.1337878e-39 294 270
-0.031998333 0.73000002 -0.038398001 7.65364e-40 295 270
-0.030718399 0.73000002 -0.038398001 6.7138311e-40 296 270
-0.029438468 0.73000002 -0.038398001 3.9479622e-40 297 270
-0.028158534 0.73000002 -0.038398001 3.0260059e-40 298 270
-0.026878599 0.73000002 -0.038398001 3.0260059e-40 299 270
-0.025598666 0.73000002 -0.038398001 4.8626878e-40 300 270
-0.024318734 0.73000002 -0.038398001 3.0223766e-40 301 270
-0.023038799 0.73000002 -0.038398001 8.5253457e-40 302 270
-0.021758866 0.73000002 -0.038398001 8.5253457e-40 303 270
-0.020506985 0.73100001 -0.038450599 5.7774555e-40 304 270
-0.019225299 0.73100001 -0.038450599 5.7774555e-40 305 270
-0.017943613 0.73100001 -0.038450599 3.0295652e-40 306 270
-0.016661927 0.73100001 -0.038450599 3.0295652e-40 307 270
-0.01538024 0.73100001 -0.038450599 3.0188453e-40 308 270
-0.014098554 0.73100001 -0.038450599 3.0188453e-40 309 270
-0.012816866 0.73100001 -0.038450599 3.0188733e-40 310 270
-0.01153518 0.73100001 -0.038450599 3.0188733e-40 311 270
-0.010281546 0.73299998 -0.038555797 4.8519679e-40 312 270
-0.0089963535 0.73299998 -0.038555797 4.8519679e-40 313 270
-0.0077111595 0.73299998 -0.038555797 6.6850905e-40 314 270
-0.0064259665 0.73299998 -0.038555797 6.6850905e-40 315 270
-0.005140773 0.73299998 -0.038555797 4.8519959e-40 316 270
-0.0038555798 0.73299998 -0.038555797 4.8519959e-40 317 270
-0.0025703865 0.73299998 -0.038555797 3.026034e-40 318 270
-0.0012816866 0.73100001 -0.038450599 2.1040777e-40 319 270
0 0.73000002 -0.038398001 3.0188173e-40 320 270
0.0012799334 0.73000002 -0.038398001 3.0188173e-40 321 270
0.0025598668 0.73000002 -0.038398001 3.0188173e-40 322 270
0.0038397999 0.73000002 -0.038398001 4.8627159e-40 323 270
0.0051197335 0.73000002 -0.038398001 3.0260059e-40 324 270
0.0063821329 0.72799999 -0.038292799 3.0260059e-40 325 270
0.0076585598 0.72799999 -0.038292799 7.6106341e-40 326 270
0.0089349858 0.72799999 -0.038292799 6.6850905e-40 327 270
0.010211413 0.72799999 -0.038292799 4.8519679e-40 328 270
0.011519399 0.73000002 -0.038398001 5.7739242e-40 329 270
0.012799333 0.73000002 -0.038398001 5.7846722e-40 330 270
0.014079267 0.73000002 -0.038398001 6.7066285e-40 331 270
0.0153592 0.73000002 -0.038398001 8.5397511e-40 332 270
0.016639132 0.73000002 -0.038398001 6.6994398e-40 333 270
0.017869972 0.72799999 -0.038292799 8.5325904e-40 334 270
0.0191464 0.72799999 -0.038292799 1.0376517e-39 335 270
0.020394772 0.727 -0.038240198 2.9257711e-41 336 270
0.021609833 0.72500002 -0.038135 2.9619246e-41 337 270
0.022880999 0.72500002 -0.038135 3.7858881e-41 338 270
0.024152167 0.72500002 -0.038135 4.6516018e-39 339 270
0.025353199 0.72299999 -0.038029801 1.4203204e-38 340 270
-0.039406165 0.72500002 -0.039406165 1.5475858e-38 289 271
-0.038135 0.72500002 -0.039406165 1.363523e-38 290 271
-0.036863834 0.72500002 -0.039406165 1.132998e-38 291 271
-0.035739943 0.72799999 -0.039569225 5.729503e-39 292 271
-0.034463517 0.72799999 -0.039569225 4.8079069e-39 293 271
-0.033278264 0.73000002 -0.039677933 1.5936897e-39 294 271
-0.031910665 0.72799999 -0.039569225 1.1330703e-39 295 271
-0.030634239 0.72799999 -0.039569225 1.1302005e-39 296 271
-0.029357811 0.72799999 -0.039569225 9.458078e-40 297 271
-0.028081384 0.72799999 -0.039569225 5.7846722e-40 298 271
-0.026804959 0.72799999 -0.039569225 4.8627159e-40 299 271
-0.025528532 0.72799999 -0.039569225 4.8627159e-40 300 271
-0.024252106 0.72799999 -0.039569225 4.8627159e-40 301 271
-0.022975679 0.72799999 -0.039569225 5.7774835e-40 302 271
-0.021699252 0.72799999 -0.039569225 5.7774835e-40 303 271
-0.020478934 0.73000002 -0.039677933 3.0260059e-40 304 271
-0.019199001 0.73000002 -0.039677933 3.0260059e-40 305 271
-0.017919067 0.73000002 -0.039677933 1.1929114e-40 306 271
-0.016593546 0.72799999 -0.039569225 2.7095507e-41 307 271
-0.01531712 0.72799999 -0.039569225 3.026034e-40 308 271
-0.014079267 0.73000002 -0.039677933 3.026034e-40 309 271
-0.012799333 0.73000002 -0.039677933 2.1040777e-40 310 271
-0.011519399 0.73000002 -0.039677933 2.1040777e-40 311 271
-0.010239467 0.73000002 -0.039677933 3.0188173e-40 312 271
-0.0089595336 0.73000002 -0.039677933 2.096861e-40 313 271
-0.0076795998 0.73000002 -0.039677933 3.9299836e-40 314 271
-0.006408433 0.73100001 -0.039732285 3.9299836e-40 315 271
-0.0051267464 0.73100001 -0.039732285 4.8519959e-40 316 271
-0.00384506 0.73100001 -0.039732285 3.9300396e-40 317 271
-0.0025598668 0.73000002 -0.039677933 2.0933297e-40 318 271
-0.0012764266 0.72799999 -0.039569225 2.0933297e-40 319 271
0 0.72799999 -0.039569225 1.1785621e-40 320 271
0.0012799334 0.73000002 -0.039677933 2.5660577e-41 321 271
0.0025598668 0.73000002 -0.039677933 1.1785621e-40 322 271
0.0038292799 0.72799999 -0.039569225 2.1005184e-40 323 271
0.0050986931 0.727 -0.039514873 3.0188733e-40 324 271
0.0063558333 0.72500002 -0.039406165 2.0933297e-40 325 271
0.0076270006 0.72500002 -0.039406165 3.9300396e-40 326 271
0.0088981669 0.72500002 -0.039406165 3.004496e-40 327 271
0.010169334 0.72500002 -0.039406165 3.004496e-40 328 271
0.01147206 0.727 -0.039514873 3.9300396e-40 329 271
0.012676599 0.72299999 -0.039297458 3.026062e-40 330 271
0.01394426 0.72299999 -0.039297458 3.9480183e-40 331 271
0.015211919 0.72299999 -0.039297458 5.7739242e-40 332 271
0.016525166 0.72500002 -0.039406165 5.7739242e-40 333 271
0.017845426 0.727 -0.039514873 4.8591846e-40 334 271
0.0190675 0.72500002 -0.039406165 5.7811409e-40 335 271
0.020338668 0.72500002 -0.039406165 3.047684e-40 336 271
0.021550218 0.72299999 -0.039297458 1.2037574e-40 337 271
0.02281788 0.72299999 -0.039297458 3.2469487e-41 338 271
0.024085538 0.72299999 -0.039297458 3.0810475e-39 339 271
0.025353199 0.72299999 -0.039297458 1.162749e-38 340 271
0.026620859 0.72299999 -0.039297458 1.3379207e-38 341 271
