# .PCD v.7 - Point Cloud Data file format
FIELDS x y z rgb imX imY
SIZE 4 4 4 4 4 4
TYPE F F F F F F
COUNT 1 1 1 1 1 1
WIDTH 838
HEIGHT 1
VIEWPOINT 0 0 0 1 0 0 0
POINTS 838
DATA ascii
-0.026989058 0.73299998 -0.0077111595 1.3248785e-38 299 246
-0.025633732 0.73100001 -0.00769012 1.3887672e-38 300 246
-0.024252106 0.72799999 -0.0076585598 1.2596933e-38 301 246
-0.022944121 0.727 -0.0076480396 1.3420582e-38 302 246
-0.021669446 0.727 -0.0076480396 1.3328386e-38 303 246
-0.020422826 0.72799999 -0.0076585598 1.314292e-38 304 246
-0.0191464 0.72799999 -0.0076585598 1.2866692e-38 305 246
-0.017845426 0.727 -0.0076480396 1.3049638e-38 306 246
-0.016525166 0.72500002 -0.0076270006 1.2864888e-38 307 246
-0.015254001 0.72500002 -0.0076270006 1.3047838e-38 308 246
-0.013982833 0.72500002 -0.0076270006 1.3140033e-38 309 246
-0.012676599 0.72299999 -0.0076059597 1.314003e-38 310 246
-0.01140894 0.72299999 -0.0076059597 1.3232585e-38 311 246
-0.01014128 0.72299999 -0.0076059597 1.3051423e-38 312 246
-0.0088736191 0.72299999 -0.0076059597 1.332837e-38 313 246
-0.0076059597 0.72299999 -0.0076059597 1.3145787e-38 314 246
-0.0063382997 0.72299999 -0.0076059597 1.333018e-38 315 246
-0.0050706398 0.72299999 -0.0076059597 1.3056485e-38 316 246
-0.0038029798 0.72299999 -0.0076059597 1.3425267e-38 317 246
-0.0025353199 0.72299999 -0.0076059597 1.278494e-38 318 246
-0.0012676599 0.72299999 -0.0076059597 1.3153722e-38 319 246
0 0.722 -0.0075954394 1.306369e-38 320 246
0.0012659066 0.722 -0.0075954394 1.3248082e-38 321 246
0.0025248001 0.72000003 -0.0075743999 1.3067303e-38 322 246
0.0037872 0.72000003 -0.0075743999 1.3804869e-38 323 246
0.0050496003 0.72000003 -0.0075743999 1.3172456e-38 324 246
0.0063120001 0.72000003 -0.0075743999 1.5384791e-38 325 246
-0.032261331 0.736 -0.0090331733 1.5480937e-38 295 247
-0.030970879 0.736 -0.0090331733 1.4271596e-38 296 247
-0.029599773 0.73400003 -0.0090086265 1.288866e-38 297 247
-0.028274251 0.73299998 -0.0089963535 1.3984552e-38 298 247
-0.026989058 0.73299998 -0.0089963535 1.2970761e-38 299 247
-0.025633732 0.73100001 -0.0089718066 1.3884085e-38 300 247
-0.024218792 0.727 -0.0089227129 1.2961768e-38 301 247
-0.022944121 0.727 -0.0089227129 1.3326958e-38 302 247
-0.021669446 0.727 -0.0089227129 1.305037e-38 303 247
-0.020422826 0.72799999 -0.0089349858 1.2865257e-38 304 247
-0.019120099 0.727 -0.0089227129 1.2773061e-38 305 247
-0.017796334 0.72500002 -0.0088981669 1.2771622e-38 306 247
-0.01647958 0.72299999 -0.0088736191 1.2679426e-38 307 247
-0.015211919 0.72299999 -0.0088736191 1.286237e-38 308 247
-0.01394426 0.72299999 -0.0088736191 1.2954566e-38 309 247
-0.012676599 0.72299999 -0.0088736191 1.2956355e-38 310 247
-0.01140894 0.72299999 -0.0088736191 1.3233301e-38 311 247
-0.010127253 0.722 -0.0088613462 1.3235452e-38 312 247
-0.0088613462 0.722 -0.0088613462 1.351168e-38 313 247
-0.0075954394 0.722 -0.0088613462 1.332838e-38 314 247
-0.0063295332 0.722 -0.0088613462 1.3144349e-38 315 247
-0.0050636264 0.722 -0.0088613462 1.2869576e-38 316 247
-0.0037977197 0.722 -0.0088613462 1.2961771e-38 317 247
-0.0025318132 0.722 -0.0088613462 1.2780977e-38 318 247
-0.0012659066 0.722 -0.0088613462 1.3241955e-38 319 247
0 0.722 -0.0088613462 1.2969327e-38 320 247
0.0012659066 0.722 -0.0088613462 1.333847e-38 321 247
0.0025248001 0.72000003 -0.0088367993 1.2787464e-38 322 247
0.0037872 0.72000003 -0.0088367993 1.306369e-38 323 247
0.0050496003 0.72000003 -0.0088367993 1.2148591e-38 324 247
0.0063120001 0.72000003 -0.0088367993 1.4545677e-38 325 247
-0.033460613 0.73400003 -0.010295574 1.5663161e-38 294 248
-0.032173667 0.73400003 -0.010295574 1.3450467e-38 295 248
-0.030886721 0.73400003 -0.010295574 1.3618296e-38 296 248
-0.029559445 0.73299998 -0.010281546 1.3341351e-38 297 248
-0.028274251 0.73299998 -0.010281546 1.3704363e-38 298 248
-0.026915418 0.73100001 -0.010253493 1.2874242e-38 299 248
-0.025598666 0.73000002 -0.010239467 1.3696443e-38 300 248
-0.024218792 0.727 -0.010197386 1.3235466e-38 301 248
-0.022880999 0.72500002 -0.010169334 1.3049633e-38 302 248
-0.021609833 0.72500002 -0.010169334 1.2865241e-38 303 248
-0.020394772 0.727 -0.010197386 1.2772323e-38 304 248
-0.019014901 0.72299999 -0.01014128 1.2587931e-38 305 248
-0.017747238 0.72299999 -0.01014128 1.2954193e-38 306 248
-0.01647958 0.72299999 -0.01014128 1.3046389e-38 307 248
-0.015190879 0.722 -0.010127253 1.2863071e-38 308 248
-0.013924973 0.722 -0.010127253 1.2955625e-38 309 248
-0.012659066 0.722 -0.010127253 1.2956341e-38 310 248
-0.01139316 0.722 -0.010127253 1.3232929e-38 311 248
-0.010127253 0.722 -0.010127253 1.3421267e-38 312 248
-0.0088613462 0.722 -0.010127253 1.3513462e-38 313 248
-0.0075954394 0.722 -0.010127253 1.3421267e-38 314 248
-0.0063295332 0.722 -0.010127253 1.3329071e-38 315 248
-0.0050636264 0.722 -0.010127253 1.3051426e-38 316 248
-0.0037977197 0.722 -0.010127253 1.3143623e-38 317 248
-0.0025318132 0.722 -0.010127253 1.2776658e-38 318 248
-0.0012659066 0.722 -0.010127253 1.3145439e-38 319 248
0 0.722 -0.010127253 1.2871022e-38 320 248
0.0012659066 0.722 -0.010127253 1.3331998e-38 321 248
0.0025318132 0.722 -0.010127253 1.2875343e-38 322 248
0.0037872 0.72000003 -0.010099201 1.3428158e-38 323 248
0.0050496003 0.72000003 -0.010099201 1.269636e-38 324 248
0.0063120001 0.72000003 -0.010099201 1.2604164e-38 325 248
-0.035985414 0.73299998 -0.011566739 1.7785825e-38 292 249
-0.034700219 0.73299998 -0.011566739 1.704826e-38 293 249
-0.033415023 0.73299998 -0.011566739 1.4364866e-38 294 249
-0.032129832 0.73299998 -0.011566739 1.2704985e-38 295 249
-0.030844638 0.73299998 -0.011566739 1.3708326e-38 296 249
-0.029478792 0.73100001 -0.01153518 1.3431379e-38 297 249
-0.028197108 0.73100001 -0.01153518 1.3610009e-38 298 249
-0.026804959 0.72799999 -0.01148784 1.3056835e-38 299 249
-0.025493465 0.727 -0.01147206 1.3603881e-38 300 249
-0.024085538 0.72299999 -0.01140894 1.3142903e-38 301 249
-0.02281788 0.72299999 -0.01140894 1.3141455e-38 302 249
-0.021550218 0.72299999 -0.01140894 1.2957063e-38 303 249
-0.020282559 0.72299999 -0.01140894 1.2863792e-38 304 249
-0.019014901 0.72299999 -0.01140894 1.2587566e-38 305 249
-0.017747238 0.72299999 -0.01140894 1.2770881e-38 306 249
-0.016456785 0.722 -0.01139316 1.2770881e-38 307 249
-0.0151488 0.72000003 -0.011361601 1.2587566e-38 308 249
-0.0138864 0.72000003 -0.011361601 1.2863792e-38 309 249
-0.012606465 0.71899998 -0.01134582 1.2773029e-38 310 249
-0.01134582 0.71899998 -0.01134582 1.3141453e-38 311 249
-0.01005712 0.71700001 -0.01131426 1.3236508e-38 312 249
-0.0087999795 0.71700001 -0.01131426 1.3604932e-38 313 249
-0.0075743999 0.72000003 -0.011361601 1.3512381e-38 314 249
-0.0063120001 0.72000003 -0.011361601 1.3143957e-38 315 249
-0.0050496003 0.72000003 -0.011361601 1.2958512e-38 316 249
-0.0037872 0.72000003 -0.011361601 1.2958512e-38 317 249
-0.0025248001 0.72000003 -0.011361601 1.2591547e-38 318 249
-0.0012624001 0.72000003 -0.011361601 1.2683742e-38 319 249
0 0.722 -0.01139316 1.2683756e-38 320 249
0.0012659066 0.722 -0.01139316 1.2960702e-38 321 249
0.0025318132 0.722 -0.01139316 1.259588e-38 322 249
0.0037872 0.72000003 -0.011361601 1.3056856e-38 323 249
0.0050496003 0.72000003 -0.011361601 1.2783508e-38 324 249
0.0063120001 0.72000003 -0.011361601 1.2876062e-38 325 249
-0.035985414 0.73299998 -0.012851933 1.7416322e-38 292 250
-0.034700219 0.73299998 -0.012851933 1.5664605e-38 293 250
-0.033323854 0.73100001 -0.012816866 1.2881824e-38 294 250
-0.032042164 0.73100001 -0.012816866 1.2697432e-38 295 250
-0.03076048 0.73100001 -0.012816866 1.3799439e-38 296 250
-0.029438468 0.73000002 -0.012799333 1.3246624e-38 297 250
-0.028158534 0.73000002 -0.012799333 1.3885507e-38 298 250
-0.026768139 0.727 -0.012746733 1.3240138e-38 299 250
-0.025353199 0.72299999 -0.012676599 1.3604231e-38 300 250
-0.024052227 0.722 -0.012659066 1.3235449e-38 301 250
-0.022786319 0.722 -0.012659066 1.341767e-38 302 250
-0.021520413 0.722 -0.012659066 1.3141086e-38 303 250
-0.020254506 0.722 -0.012659066 1.2864503e-38 304 250
-0.0189886 0.722 -0.012659066 1.277195e-38 305 250
-0.017722692 0.722 -0.012659066 1.2954545e-38 306 250
-0.0164112 0.72000003 -0.012624 1.2954545e-38 307 250
-0.01512776 0.71899998 -0.012606465 1.2954545e-38 308 250
-0.013867113 0.71899998 -0.012606465 1.3138935e-38 309 250
-0.012606465 0.71899998 -0.012606465 1.3048891e-38 310 250
-0.01131426 0.71700001 -0.0125714 1.3233283e-38 311 250
-0.01005712 0.71700001 -0.0125714 1.3512018e-38 312 250
-0.0087999795 0.71700001 -0.0125714 1.3604213e-38 313 250
-0.0075428397 0.71700001 -0.0125714 1.3420541e-38 314 250
-0.0062857 0.71700001 -0.0125714 1.3051761e-38 315 250
-0.0050285598 0.71700001 -0.0125714 1.2865948e-38 316 250
-0.0037714199 0.71700001 -0.0125714 1.2865948e-38 317 250
-0.0025212932 0.71899998 -0.012606465 1.2682648e-38 318 250
-0.0012606466 0.71899998 -0.012606465 1.2682648e-38 319 250
0 0.71899998 -0.012606465 1.240715e-38 320 250
0.0012624001 0.72000003 -0.012624 1.25919e-38 321 250
0.0025248001 0.72000003 -0.012624 1.2501516e-38 322 250
0.0037872 0.72000003 -0.012624 1.2685907e-38 323 250
0.0050496003 0.72000003 -0.012624 1.2779542e-38 324 250
0.0063295332 0.722 -0.012659066 1.3056488e-38 325 250
0.0075954394 0.722 -0.012659066 1.2508716e-38 326 250
0.0088613462 0.722 -0.012659066 1.260127e-38 327 250
-0.035838135 0.73000002 -0.014079267 1.6032666e-38 292 251
-0.034558199 0.73000002 -0.014079267 1.3819611e-38 293 251
-0.033278264 0.73000002 -0.014079267 1.2324332e-38 294 251
-0.031910665 0.72799999 -0.014040692 1.2877504e-38 295 251
-0.030634239 0.72799999 -0.014040692 1.3798722e-38 296 251
-0.029357811 0.72799999 -0.014040692 1.3522135e-38 297 251
-0.028042812 0.727 -0.014021406 1.3795109e-38 298 251
-0.026620859 0.72299999 -0.01394426 1.314974e-38 299 251
-0.025318133 0.722 -0.013924973 1.3604231e-38 300 251
-0.024052227 0.722 -0.013924973 1.3419481e-38 301 251
-0.022723202 0.72000003 -0.0138864 1.3326197e-38 302 251
-0.021460801 0.72000003 -0.0138864 1.3141806e-38 303 251
-0.020254506 0.722 -0.013924973 1.304961e-38 304 251
-0.0189886 0.722 -0.013924973 1.2680832e-38 305 251
-0.017649053 0.71899998 -0.013867113 1.2863427e-38 306 251
-0.016388407 0.71899998 -0.013867113 1.2955621e-38 307 251
-0.01512776 0.71899998 -0.013867113 1.3140009e-38 308 251
-0.013828539 0.71700001 -0.013828539 1.3232205e-38 309 251
-0.0125714 0.71700001 -0.013828539 1.3234001e-38 310 251
-0.01131426 0.71700001 -0.013828539 1.3418751e-38 311 251
-0.01005712 0.71700001 -0.013828539 1.3420541e-38 312 251
-0.0087999795 0.71700001 -0.013828539 1.3512737e-38 313 251
-0.00753232 0.71600002 -0.013809253 1.3418746e-38 314 251
-0.0062769335 0.71600002 -0.013809253 1.3142162e-38 315 251
-0.0050215465 0.71600002 -0.013809253 1.2773748e-38 316 251
-0.0037714199 0.71700001 -0.013828539 1.2773748e-38 317 251
-0.0025142799 0.71700001 -0.013828539 1.2498251e-38 318 251
-0.00125714 0.71700001 -0.013828539 1.2590447e-38 319 251
0 0.71899998 -0.013867113 1.24075e-38 320 251
0.0012606466 0.71899998 -0.013867113 1.2500055e-38 321 251
0.0025248001 0.72000003 -0.0138864 1.2316752e-38 322 251
0.0037872 0.72000003 -0.0138864 1.2501503e-38 323 251
0.0050496003 0.72000003 -0.0138864 1.2501864e-38 324 251
0.0063295332 0.722 -0.013924973 1.2778809e-38 325 251
0.0075954394 0.722 -0.013924973 1.2598381e-38 326 251
0.0088736191 0.72299999 -0.01394426 1.2690576e-38 327 251
0.010169334 0.72500002 -0.013982833 1.1500691e-38 328 251
0.0114405 0.72500002 -0.013982833 1.3713025e-38 329 251
0.012711667 0.72500002 -0.013982833 1.4651545e-38 330 251
-0.035887226 0.73100001 -0.01538024 1.4740125e-38 292 252
-0.034558199 0.73000002 -0.0153592 1.1605474e-38 293 252
-0.033187091 0.72799999 -0.01531712 1.2415432e-38 294 252
-0.031910665 0.72799999 -0.01531712 1.3337388e-38 295 252
-0.030592158 0.727 -0.015296079 1.3800144e-38 296 252
-0.029317487 0.727 -0.015296079 1.3615753e-38 297 252
-0.027965667 0.72500002 -0.015254001 1.4072042e-38 298 252
-0.026620859 0.72299999 -0.015211919 1.3150087e-38 299 252
-0.025248 0.72000003 -0.0151488 1.369678e-38 300 252
-0.0239856 0.72000003 -0.0151488 1.3235802e-38 301 252
-0.022723202 0.72000003 -0.0151488 1.3326553e-38 302 252
-0.021460801 0.72000003 -0.0151488 1.3141803e-38 303 252
-0.020198401 0.72000003 -0.0151488 1.3049967e-38 304 252
-0.018935999 0.72000003 -0.0151488 1.2957773e-38 305 252
-0.017649053 0.71899998 -0.01512776 1.304925e-38 306 252
-0.016388407 0.71899998 -0.01512776 1.3141444e-38 307 252
-0.015085679 0.71700001 -0.015085679 1.3233638e-38 308 252
-0.013828539 0.71700001 -0.015085679 1.3417668e-38 309 252
-0.012553867 0.71600002 -0.01506464 1.3603133e-38 310 252
-0.01129848 0.71600002 -0.01506464 1.3695327e-38 311 252
-0.010043093 0.71600002 -0.01506464 1.3787881e-38 312 252
-0.0087877065 0.71600002 -0.01506464 1.3695327e-38 313 252
-0.00753232 0.71600002 -0.01506464 1.3601698e-38 314 252
-0.0062769335 0.71600002 -0.01506464 1.3416951e-38 315 252
-0.0050215465 0.71600002 -0.01506464 1.2957057e-38 316 252
-0.00376616 0.71600002 -0.01506464 1.2957057e-38 317 252
-0.0025142799 0.71700001 -0.015085679 1.240749e-38 318 252
-0.00125714 0.71700001 -0.015085679 1.240749e-38 319 252
0 0.71899998 -0.01512776 1.1949396e-38 320 252
0.0012606466 0.71899998 -0.01512776 1.2041592e-38 321 252
0.0025248001 0.72000003 -0.0151488 1.2041241e-38 322 252
0.0037872 0.72000003 -0.0151488 1.2133437e-38 323 252
0.0050496003 0.72000003 -0.0151488 1.2133806e-38 324 252
0.0063295332 0.722 -0.015190879 1.2226003e-38 325 252
0.0075954394 0.722 -0.015190879 1.2228172e-38 326 252
0.0088613462 0.722 -0.015190879 1.2596596e-38 327 252
0.010127253 0.722 -0.015190879 1.1770085e-38 328 252
0.01140894 0.72299999 -0.015211919 1.1954476e-38 329 252
0.012676599 0.72299999 -0.015211919 1.270968e-38 330 252
0.01394426 0.72299999 -0.015211919 1.6581897e-38 331 252
-0.035887226 0.73100001 -0.016661927 1.3074843e-38 292 253
-0.034558199 0.73000002 -0.016639132 9.8479963e-39 293 253
-0.033187091 0.72799999 -0.016593546 1.2506551e-38 294 253
-0.031910665 0.72799999 -0.016593546 1.3613259e-38 295 253
-0.030592158 0.727 -0.016570752 1.3892357e-38 296 253
-0.029236834 0.72500002 -0.016525166 1.4261499e-38 297 253
-0.02788852 0.72299999 -0.01647958 1.4350448e-38 298 253
-0.026584039 0.722 -0.016456785 1.2875317e-38 299 253
-0.025248 0.72000003 -0.0164112 1.3879386e-38 300 253
-0.023952285 0.71899998 -0.016388407 1.3695355e-38 301 253
-0.022691639 0.71899998 -0.016388407 1.3325847e-38 302 253
-0.021371379 0.71700001 -0.016342819 1.3233651e-38 303 253
-0.020114239 0.71700001 -0.016342819 1.3049613e-38 304 253
-0.018909698 0.71899998 -0.016388407 1.3141809e-38 305 253
-0.017599959 0.71700001 -0.016342819 1.3050692e-38 306 253
-0.016342819 0.71700001 -0.016342819 1.2958496e-38 307 253
-0.015085679 0.71700001 -0.016342819 1.3235076e-38 308 253
-0.013809253 0.71600002 -0.016320027 1.3511665e-38 309 253
-0.012553867 0.71600002 -0.016320027 1.3604929e-38 310 253
-0.01129848 0.71600002 -0.016320027 1.3789679e-38 311 253
-0.010043093 0.71600002 -0.016320027 1.3697128e-38 312 253
-0.0087877065 0.71600002 -0.016320027 1.3604932e-38 313 253
-0.00753232 0.71600002 -0.016320027 1.3326919e-38 314 253
-0.0062593995 0.71399999 -0.016274439 1.3050692e-38 315 253
-0.0050075199 0.71399999 -0.016274439 1.2957063e-38 316 253
-0.0037556398 0.71399999 -0.016274439 1.2772673e-38 317 253
-0.0025107733 0.71600002 -0.016320027 1.2314939e-38 318 253
-0.00125714 0.71700001 -0.016342819 1.249933e-38 319 253
0 0.71700001 -0.016342819 1.1950115e-38 320 253
0.00125714 0.71700001 -0.016342819 1.2042311e-38 321 253
0.0025212932 0.71899998 -0.016388407 1.1950115e-38 322 253
0.0037819401 0.71899998 -0.016388407 1.1950115e-38 323 253
0.0050425865 0.71899998 -0.016388407 1.2224544e-38 324 253
0.0063120001 0.72000003 -0.0164112 1.2316739e-38 325 253
0.0075743999 0.72000003 -0.0164112 1.2317827e-38 326 253
0.0088613462 0.722 -0.016456785 1.250222e-38 327 253
0.010127253 0.722 -0.016456785 1.2411837e-38 328 253
0.01139316 0.722 -0.016456785 1.2504033e-38 329 253
0.012659066 0.722 -0.016456785 1.1593255e-38 330 253
0.013924973 0.722 -0.016456785 1.5372917e-38 331 253
0.015190879 0.722 -0.016456785 1.6496537e-38 332 253
-0.037168913 0.73100001 -0.017943613 1.6495805e-38 291 254
-0.035887226 0.73100001 -0.017943613 1.1963461e-38 292 254
-0.034558199 0.73000002 -0.017919067 9.1053964e-39 293 254
-0.033187091 0.72799999 -0.017869972 1.2874613e-38 294 254
-0.03186683 0.727 -0.017845426 1.3888767e-38 295 254
-0.030592158 0.727 -0.017845426 1.3893088e-38 296 254
-0.029156178 0.72299999 -0.017747238 1.4261512e-38 297 254
-0.027849946 0.722 -0.017722692 1.4353695e-38 298 254
-0.026510401 0.72000003 -0.017673599 1.2693813e-38 299 254
-0.025248 0.72000003 -0.017673599 1.3790791e-38 300 254
-0.023952285 0.71899998 -0.017649053 1.3053226e-38 301 254
-0.022691639 0.71899998 -0.017649053 1.3418042e-38 302 254
-0.021371379 0.71700001 -0.017599959 1.3233651e-38 303 254
-0.020114239 0.71700001 -0.017599959 1.3050689e-38 304 254
-0.018857099 0.71700001 -0.017599959 1.2958494e-38 305 254
-0.017599959 0.71700001 -0.017599959 1.3050689e-38 306 254
-0.016342819 0.71700001 -0.017599959 1.3050689e-38 307 254
-0.01506464 0.71600002 -0.017575413 1.3051411e-38 308 254
-0.013809253 0.71600002 -0.017575413 1.3235802e-38 309 254
-0.012518799 0.71399999 -0.017526319 1.3328718e-38 310 254
-0.011266919 0.71399999 -0.017526319 1.3420914e-38 311 254
-0.01001504 0.71399999 -0.017526319 1.3420191e-38 312 254
-0.0087631596 0.71399999 -0.017526319 1.3420191e-38 313 254
-0.0075112795 0.71399999 -0.017526319 1.33262e-38 314 254
-0.0062506334 0.713 -0.017501773 1.2957057e-38 315 254
-0.0050005065 0.713 -0.017501773 1.3139656e-38 316 254
-0.0037503797 0.713 -0.017501773 1.2955625e-38 317 254
-0.0025037599 0.71399999 -0.017526319 1.2498251e-38 318 254
-0.00125188 0.71399999 -0.017526319 1.2683001e-38 319 254
0 0.71600002 -0.017575413 1.1858998e-38 320 254
0.00125714 0.71700001 -0.017599959 1.1858998e-38 321 254
0.0025142799 0.71700001 -0.017599959 1.1858998e-38 322 254
0.0037819401 0.71899998 -0.017649053 1.1951194e-38 323 254
0.0050425865 0.71899998 -0.017649053 1.1950118e-38 324 254
0.0063120001 0.72000003 -0.017673599 1.1950118e-38 325 254
0.0075743999 0.72000003 -0.017673599 1.1858295e-38 326 254
0.0088245263 0.71899998 -0.017649053 1.1950491e-38 327 254
0.010085173 0.71899998 -0.017649053 1.2042706e-38 328 254
0.011361601 0.72000003 -0.017673599 1.2134901e-38 329 254
0.012624 0.72000003 -0.017673599 1.1033964e-38 330 254
0.0138864 0.72000003 -0.017673599 1.2970072e-38 331 254
0.0151488 0.72000003 -0.017673599 1.4743375e-38 332 254
0.0164112 0.72000003 -0.017673599 1.7601081e-38 333 254
-0.037270606 0.73299998 -0.019277899 1.5665326e-38 291 255
-0.035985414 0.73299998 -0.019277899 1.1405245e-38 292 255
-0.034558199 0.73000002 -0.019199001 9.5613327e-39 293 255
-0.033187091 0.72799999 -0.0191464 1.26895e-38 294 255
-0.03186683 0.727 -0.019120099 1.3796208e-38 295 255
-0.030508002 0.72500002 -0.0190675 1.3710136e-38 296 255
-0.029156178 0.72299999 -0.019014901 1.4078919e-38 297 255
-0.027849946 0.722 -0.0189886 1.3988155e-38 298 255
-0.026510401 0.72000003 -0.018935999 1.2420471e-38 299 255
-0.025248 0.72000003 -0.018935999 1.3607125e-38 300 255
-0.023952285 0.71899998 -0.018909698 1.3145787e-38 301 255
-0.022691639 0.71899998 -0.018909698 1.3234373e-38 302 255
-0.021430992 0.71899998 -0.018909698 1.3049983e-38 303 255
-0.020114239 0.71700001 -0.018857099 1.3141453e-38 304 255
-0.018857099 0.71700001 -0.018857099 1.3141453e-38 305 255
-0.017575413 0.71600002 -0.0188308 1.3049257e-38 306 255
-0.016320027 0.71600002 -0.0188308 1.3049257e-38 307 255
-0.01506464 0.71600002 -0.0188308 1.304926e-38 308 255
-0.01377068 0.71399999 -0.018778199 1.3141455e-38 309 255
-0.012518799 0.71399999 -0.018778199 1.3141455e-38 310 255
-0.011266919 0.71399999 -0.018778199 1.3141455e-38 311 255
-0.01001504 0.71399999 -0.018778199 1.3049983e-38 312 255
-0.0087508867 0.713 -0.018751899 1.3049983e-38 313 255
-0.0075007593 0.713 -0.018751899 1.3233648e-38 314 255
-0.0062506334 0.713 -0.018751899 1.3049257e-38 315 255
-0.0050005065 0.713 -0.018751899 1.295706e-38 316 255
-0.0037503797 0.713 -0.018751899 1.2773029e-38 317 255
-0.0025037599 0.71399999 -0.018778199 1.2498607e-38 318 255
-0.00125188 0.71399999 -0.018778199 1.2590803e-38 319 255
0 0.71600002 -0.0188308 1.1949396e-38 320 255
0.0012553866 0.71600002 -0.0188308 1.2134146e-38 321 255
0.0025107733 0.71600002 -0.0188308 1.1858998e-38 322 255
0.0037714199 0.71700001 -0.018857099 1.2227781e-38 323 255
0.0050285598 0.71700001 -0.018857099 1.1860073e-38 324 255
0.0063032326 0.71899998 -0.018909698 1.1767519e-38 325 255
0.0075638802 0.71899998 -0.018909698 1.1950115e-38 326 255
0.0088245263 0.71899998 -0.018909698 1.1950115e-38 327 255
0.010085173 0.71899998 -0.018909698 1.2041607e-38 328 255
0.011361601 0.72000003 -0.018935999 1.2134161e-38 329 255
0.012606465 0.71899998 -0.018909698 1.0753765e-38 330 255
0.013867113 0.71899998 -0.018909698 1.1030352e-38 331 255
0.0151488 0.72000003 -0.018935999 1.3079531e-38 332 255
0.0164112 0.72000003 -0.018935999 1.6859912e-38 333 255
-0.038555797 0.73299998 -0.020563092 1.6955341e-38 290 256
-0.037270606 0.73299998 -0.020563092 1.5019233e-38 291 256
-0.035985414 0.73299998 -0.020563092 1.1587474e-38 292 256
-0.034558199 0.73000002 -0.020478934 1.001979e-38 293 256
-0.033187091 0.72799999 -0.020422826 1.2688781e-38 294 256
-0.03186683 0.727 -0.020394772 1.3334151e-38 295 256
-0.030508002 0.72500002 -0.020338668 1.3246284e-38 296 256
-0.029156178 0.72299999 -0.020282559 1.3983849e-38 297 256
-0.027849946 0.722 -0.020254506 1.3711209e-38 298 256
-0.026510401 0.72000003 -0.020198401 1.2512666e-38 299 256
-0.025212931 0.71899998 -0.020170346 1.3332699e-38 300 256
-0.023952285 0.71899998 -0.020170346 1.2595134e-38 301 256
-0.02262852 0.71700001 -0.020114239 1.31429e-38 302 256
-0.021371379 0.71700001 -0.020114239 1.2958509e-38 303 256
-0.020114239 0.71700001 -0.020114239 1.3141458e-38 304 256
-0.018857099 0.71700001 -0.020114239 1.3048904e-38 305 256
-0.017575413 0.71600002 -0.020086186 1.3048904e-38 306 256
-0.016320027 0.71600002 -0.020086186 1.2956708e-38 307 256
-0.015022559 0.71399999 -0.020030079 1.2863792e-38 308 256
-0.01377068 0.71399999 -0.020030079 1.2863792e-38 309 256
-0.012501267 0.713 -0.020002026 1.2680124e-38 310 256
-0.011251139 0.713 -0.020002026 1.2680124e-38 311 256
-0.010001013 0.713 -0.020002026 1.2772679e-38 312 256
-0.0087508867 0.713 -0.020002026 1.2956711e-38 313 256
-0.0075007593 0.713 -0.020002026 1.2958496e-38 314 256
-0.0062330998 0.71100003 -0.01994592 1.2958496e-38 315 256
-0.0049864799 0.71100003 -0.01994592 1.3141803e-38 316 256
-0.0037503797 0.713 -0.020002026 1.2957415e-38 317 256
-0.0025002533 0.713 -0.020002026 1.24986e-38 318 256
-0.0012501266 0.713 -0.020002026 1.24986e-38 319 256
0 0.71399999 -0.020030079 1.231566e-38 320 256
0.00125188 0.71399999 -0.020030079 1.2407856e-38 321 256
0.0025037599 0.71399999 -0.020030079 1.2042313e-38 322 256
0.00376616 0.71600002 -0.020086186 1.2134509e-38 323 256
0.0050215465 0.71600002 -0.020086186 1.1951194e-38 324 256
0.0062857 0.71700001 -0.020114239 1.1951194e-38 325 256
0.0075638802 0.71899998 -0.020170346 1.185972e-38 326 256
0.0088245263 0.71899998 -0.020170346 1.1767524e-38 327 256
0.010099201 0.72000003 -0.020198401 1.1858295e-38 328 256
0.011361601 0.72000003 -0.020198401 1.1950491e-38 329 256
0.012606465 0.71899998 -0.020170346 1.1397687e-38 330 256
0.013867113 0.71899998 -0.020170346 1.0567926e-38 331 256
0.0151488 0.72000003 -0.020198401 1.1689038e-38 332 256
0.0164112 0.72000003 -0.020198401 1.6483212e-38 333 256
-0.039895348 0.73400003 -0.021878093 1.7601786e-38 289 257
-0.038608398 0.73400003 -0.021878093 1.6862783e-38 290 257
-0.037270606 0.73299998 -0.021848286 1.4465336e-38 291 257
-0.035985414 0.73299998 -0.021848286 1.1955176e-38 292 257
-0.034558199 0.73000002 -0.021758866 1.0203818e-38 293 257
-0.033187091 0.72799999 -0.021699252 1.2593715e-38 294 257
-0.03186683 0.727 -0.021669446 1.3054334e-38 295 257
-0.030508002 0.72500002 -0.021609833 1.3057584e-38 296 257
-0.029156178 0.72299999 -0.021550218 1.3702953e-38 297 257
-0.027849946 0.722 -0.021520413 1.3337035e-38 298 257
-0.026510401 0.72000003 -0.021460801 1.2876057e-38 299 257
-0.025212931 0.71899998 -0.021430992 1.3240506e-38 300 257
-0.02388566 0.71700001 -0.021371379 1.2595137e-38 301 257
-0.02262852 0.71700001 -0.021371379 1.3142903e-38 302 257
-0.021371379 0.71700001 -0.021371379 1.2958512e-38 303 257
-0.020114239 0.71700001 -0.021371379 1.2957787e-38 304 257
-0.0188308 0.71600002 -0.021341572 1.2865592e-38 305 257
-0.017575413 0.71600002 -0.021341572 1.2956708e-38 306 257
-0.016274439 0.71399999 -0.021281958 1.2772676e-38 307 257
-0.015001519 0.713 -0.021252153 1.2771594e-38 308 257
-0.013751393 0.713 -0.021252153 1.2587563e-38 309 257
-0.012501267 0.713 -0.021252153 1.249537e-38 310 257
-0.01121958 0.71100003 -0.021192541 1.249537e-38 311 257
-0.0099729598 0.71100003 -0.021192541 1.258721e-38 312 257
-0.0087263398 0.71100003 -0.021192541 1.2863795e-38 313 257
-0.0074797203 0.71100003 -0.021192541 1.2865942e-38 314 257
-0.0062330998 0.71100003 -0.021192541 1.3050692e-38 315 257
-0.0049864799 0.71100003 -0.021192541 1.3051044e-38 316 257
-0.0037398601 0.71100003 -0.021192541 1.2866655e-38 317 257
-0.0024932399 0.71100003 -0.021192541 1.2866298e-38 318 257
-0.0012501266 0.713 -0.021252153 1.2681549e-38 319 257
0 0.713 -0.021252153 1.2406054e-38 320 257
0.0012501266 0.713 -0.021252153 1.2590447e-38 321 257
0.0025037599 0.71399999 -0.021281958 1.2224191e-38 322 257
0.0037556398 0.71399999 -0.021281958 1.2224191e-38 323 257
0.0050215465 0.71600002 -0.021341572 1.2042316e-38 324 257
0.0062769335 0.71600002 -0.021341572 1.2134512e-38 325 257
0.0075428397 0.71700001 -0.021371379 1.1859001e-38 326 257
0.0087999795 0.71700001 -0.021371379 1.2135229e-38 327 257
0.010099201 0.72000003 -0.021460801 1.1859364e-38 328 257
0.011361601 0.72000003 -0.021460801 1.1767168e-38 329 257
0.012606465 0.71899998 -0.021430992 1.1766818e-38 330 257
0.013867113 0.71899998 -0.021430992 1.1213644e-38 331 257
0.0151488 0.72000003 -0.021460801 1.0667327e-38 332 257
0.0164112 0.72000003 -0.021460801 1.564625e-38 333 257
-0.039895348 0.73400003 -0.023165042 1.7969491e-38 289 258
-0.038608398 0.73400003 -0.023165042 1.6678389e-38 290 258
-0.037270606 0.73299998 -0.023133477 1.4004357e-38 291 258
-0.035887226 0.73100001 -0.02307036 1.2047725e-38 292 258
-0.034463517 0.72799999 -0.022975679 1.0480398e-38 293 258
-0.033187091 0.72799999 -0.022975679 1.2594062e-38 294 258
-0.03186683 0.727 -0.022944121 1.2409671e-38 295 258
-0.030508002 0.72500002 -0.022880999 1.2961774e-38 296 258
-0.029156178 0.72299999 -0.02281788 1.3422393e-38 297 258
-0.027849946 0.722 -0.022786319 1.3148683e-38 298 258
-0.026510401 0.72000003 -0.022723202 1.2964292e-38 299 258
-0.025212931 0.71899998 -0.022691639 1.2961768e-38 300 258
-0.02388566 0.71700001 -0.02262852 1.2685181e-38 301 258
-0.02262852 0.71700001 -0.02262852 1.305107e-38 302 258
-0.021371379 0.71700001 -0.02262852 1.2867039e-38 303 258
-0.020086186 0.71600002 -0.022596961 1.2958506e-38 304 258
-0.0188308 0.71600002 -0.022596961 1.2866311e-38 305 258
-0.017526319 0.71399999 -0.022533838 1.2774112e-38 306 258
-0.016274439 0.71399999 -0.022533838 1.259008e-38 307 258
-0.015001519 0.713 -0.022502279 1.2588998e-38 308 258
-0.013751393 0.713 -0.022502279 1.2220578e-38 309 258
-0.0124662 0.71100003 -0.022439159 1.2586485e-38 310 258
-0.01121958 0.71100003 -0.022439159 1.2494291e-38 311 258
-0.0099729598 0.71100003 -0.022439159 1.2586485e-38 312 258
-0.0087263398 0.71100003 -0.022439159 1.2678679e-38 313 258
-0.0074797203 0.71100003 -0.022439159 1.2774102e-38 314 258
-0.0062330998 0.71100003 -0.022439159 1.2958494e-38 315 258
-0.0049864799 0.71100003 -0.022439159 1.3051761e-38 316 258
-0.0037398601 0.71100003 -0.022439159 1.2867014e-38 317 258
-0.0024932399 0.71100003 -0.022439159 1.2867014e-38 318 258
-0.00124662 0.71100003 -0.022439159 1.259079e-38 319 258
0 0.713 -0.022502279 1.2406407e-38 320 258
0.0012501266 0.713 -0.022502279 1.2406407e-38 321 258
0.0025002533 0.713 -0.022502279 1.2314586e-38 322 258
0.0037503797 0.713 -0.022502279 1.2406781e-38 323 258
0.0050075199 0.71399999 -0.022533838 1.1949043e-38 324 258
0.0062769335 0.71600002 -0.022596961 1.2041597e-38 325 258
0.00753232 0.71600002 -0.022596961 1.19512e-38 326 258
0.0087999795 0.71700001 -0.02262852 1.1858645e-38 327 258
0.010085173 0.71899998 -0.022691639 1.1676055e-38 328 258
0.011361601 0.72000003 -0.022723202 1.1583859e-38 329 258
0.012624 0.72000003 -0.022723202 1.1766821e-38 330 258
0.0138864 0.72000003 -0.022723202 1.139804e-38 331 258
0.015190879 0.722 -0.022786319 1.0384979e-38 332 258
0.016456785 0.722 -0.022786319 1.4533783e-38 333 258
0.017722692 0.722 -0.022786319 1.686278e-38 334 258
-0.039840993 0.73299998 -0.024418673 1.7969491e-38 289 259
-0.038555797 0.73299998 -0.024418673 1.6309604e-38 290 259
-0.037270606 0.73299998 -0.024418673 1.363593e-38 291 259
-0.035887226 0.73100001 -0.024352046 1.2048081e-38 292 259
-0.034463517 0.72799999 -0.024252106 1.0665147e-38 293 259
-0.033141505 0.727 -0.024218792 1.2684093e-38 294 259
-0.031691495 0.72299999 -0.024085538 1.2684093e-38 295 259
-0.030423839 0.72299999 -0.024085538 1.2408244e-38 296 259
-0.029115854 0.722 -0.024052227 1.2869222e-38 297 259
-0.027772799 0.72000003 -0.0239856 1.2685554e-38 298 259
-0.026510401 0.72000003 -0.0239856 1.2593359e-38 299 259
-0.025212931 0.71899998 -0.023952285 1.2776658e-38 300 259
-0.02388566 0.71700001 -0.02388566 1.2592266e-38 301 259
-0.022596961 0.71600002 -0.023852346 1.2867755e-38 302 259
-0.021341572 0.71600002 -0.023852346 1.2867755e-38 303 259
-0.020086186 0.71600002 -0.023852346 1.2958862e-38 304 259
-0.018778199 0.71399999 -0.02378572 1.2958862e-38 305 259
-0.017526319 0.71399999 -0.02378572 1.2775544e-38 306 259
-0.016251646 0.713 -0.023752406 1.2591153e-38 307 259
-0.014959441 0.71100003 -0.023685781 1.2681908e-38 308 259
-0.01371282 0.71100003 -0.023685781 1.2313131e-38 309 259
-0.0124662 0.71100003 -0.023685781 1.2403532e-38 310 259
-0.01121958 0.71100003 -0.023685781 1.2310979e-38 311 259
-0.0099729598 0.71100003 -0.023685781 1.2310621e-38 312 259
-0.0087263398 0.71100003 -0.023685781 1.258721e-38 313 259
-0.0074797203 0.71100003 -0.023685781 1.2590084e-38 314 259
-0.0062330998 0.71100003 -0.023685781 1.2958506e-38 315 259
-0.0049864799 0.71100003 -0.023685781 1.2868096e-38 316 259
-0.0037345996 0.70999998 -0.023652466 1.2868096e-38 317 259
-0.0024897333 0.70999998 -0.023652466 1.2867373e-38 318 259
-0.00124662 0.71100003 -0.023685781 1.2591149e-38 319 259
0 0.71100003 -0.023685781 1.240676e-38 320 259
0.00124662 0.71100003 -0.023685781 1.240676e-38 321 259
0.0024932399 0.71100003 -0.023685781 1.2222386e-38 322 259
0.0037398601 0.71100003 -0.023685781 1.2314942e-38 323 259
0.0050005065 0.713 -0.023752406 1.204016e-38 324 259
0.0062506334 0.713 -0.023752406 1.2132714e-38 325 259
0.0075112795 0.71399999 -0.02378572 1.1949765e-38 326 259
0.0087877065 0.71600002 -0.023852346 1.204196e-38 327 259
0.01005712 0.71700001 -0.02388566 1.1766452e-38 328 259
0.01134582 0.71899998 -0.023952285 1.1766452e-38 329 259
0.012624 0.72000003 -0.0239856 1.1582434e-38 330 259
0.0138864 0.72000003 -0.0239856 1.1766465e-38 331 259
0.0151488 0.72000003 -0.0239856 1.0475013e-38 332 259
0.0164112 0.72000003 -0.0239856 1.2963936e-38 333 259
0.017722692 0.722 -0.024052227 1.6032649e-38 334 259
0.0189886 0.722 -0.024052227 1.7231193e-38 335 259
-0.039840993 0.73299998 -0.025703866 1.7785459e-38 289 260
-0.038555797 0.73299998 -0.025703866 1.6217408e-38 290 260
-0.037270606 0.73299998 -0.025703866 1.3451539e-38 291 260
-0.035887226 0.73100001 -0.025633732 1.2231393e-38 292 260
-0.034463517 0.72799999 -0.025528532 1.103285e-38 293 260
-0.033141505 0.727 -0.025493465 1.250257e-38 294 260
-0.031691495 0.72299999 -0.025353199 1.18572e-38 295 260
-0.030423839 0.72299999 -0.025353199 1.2406781e-38 296 260
-0.029115854 0.722 -0.025318133 1.2499336e-38 297 260
-0.027772799 0.72000003 -0.025248 1.2774846e-38 298 260
-0.02647358 0.71899998 -0.025212931 1.2590096e-38 299 260
-0.0251428 0.71700001 -0.0251428 1.277449e-38 300 260
-0.02388566 0.71700001 -0.0251428 1.2590099e-38 301 260
-0.022596961 0.71600002 -0.025107734 1.2774844e-38 302 260
-0.021341572 0.71600002 -0.025107734 1.2867039e-38 303 260
-0.020086186 0.71600002 -0.025107734 1.2867755e-38 304 260
-0.018778199 0.71399999 -0.025037598 1.2867755e-38 305 260
-0.017501773 0.713 -0.025002534 1.2868831e-38 306 260
-0.016251646 0.713 -0.025002534 1.2684799e-38 307 260
-0.014959441 0.71100003 -0.024932399 1.2868464e-38 308 260
-0.01371282 0.71100003 -0.024932399 1.2407488e-38 309 260
-0.0124662 0.71100003 -0.024932399 1.2313493e-38 310 260
-0.01121958 0.71100003 -0.024932399 1.1944713e-38 311 260
-0.0099589331 0.70999998 -0.024897331 1.2127666e-38 312 260
-0.0087140659 0.70999998 -0.024897331 1.2311696e-38 313 260
-0.0074691991 0.70999998 -0.024897331 1.2405325e-38 314 260
-0.0062243328 0.70999998 -0.024897331 1.2681549e-38 315 260
-0.0049794666 0.70999998 -0.024897331 1.2958494e-38 316 260
-0.0037345996 0.70999998 -0.024897331 1.2958494e-38 317 260
-0.0024897333 0.70999998 -0.024897331 1.2867014e-38 318 260
-0.0012448666 0.70999998 -0.024897331 1.277482e-38 319 260
0 0.71100003 -0.024932399 1.2407841e-38 320 260
0.00124662 0.71100003 -0.024932399 1.2223089e-38 321 260
0.0024932399 0.71100003 -0.024932399 1.2223459e-38 322 260
0.0037398601 0.71100003 -0.024932399 1.2039427e-38 323 260
0.0050005065 0.713 -0.025002534 1.2223462e-38 324 260
0.0062506334 0.713 -0.025002534 1.2223462e-38 325 260
0.0075112795 0.71399999 -0.025037598 1.2040513e-38 326 260
0.0087631596 0.71399999 -0.025037598 1.2132708e-38 327 260
0.010043093 0.71600002 -0.025107734 1.1857566e-38 328 260
0.01134582 0.71899998 -0.025212931 1.1673535e-38 329 260
0.012606465 0.71899998 -0.025212931 1.1673901e-38 330 260
0.0138864 0.72000003 -0.025248 1.1766096e-38 331 260
0.0151488 0.72000003 -0.025248 1.1393001e-38 332 260
0.0164112 0.72000003 -0.025248 1.2591544e-38 333 260
0.017722692 0.722 -0.025318133 1.5108891e-38 334 260
0.0189886 0.722 -0.025318133 1.6768414e-38 335 260
-0.039840993 0.73299998 -0.026989058 1.7785462e-38 289 261
-0.038555797 0.73299998 -0.026989058 1.6217411e-38 290 261
-0.037270606 0.73299998 -0.026989058 1.3358987e-38 291 261
-0.035739943 0.72799999 -0.026804959 1.2507257e-38 292 261
-0.03441618 0.727 -0.026768139 1.1216518e-38 293 261
-0.033050332 0.72500002 -0.026694499 1.2592963e-38 294 261
-0.031647664 0.722 -0.026584039 1.2132345e-38 295 261
-0.030381758 0.722 -0.026584039 1.2314586e-38 296 261
-0.029035201 0.72000003 -0.026510401 1.2222389e-38 297 261
-0.027772799 0.72000003 -0.026510401 1.2405704e-38 298 261
-0.02647358 0.71899998 -0.02647358 1.2405704e-38 299 261
-0.0251428 0.71700001 -0.02639994 1.2405704e-38 300 261
-0.02388566 0.71700001 -0.02639994 1.2497901e-38 301 261
-0.022596961 0.71600002 -0.026363119 1.249898e-38 302 261
-0.021341572 0.71600002 -0.026363119 1.2775565e-38 303 261
-0.020086186 0.71600002 -0.026363119 1.2868476e-38 304 261
-0.018778199 0.71399999 -0.026289478 1.296103e-38 305 261
-0.017501773 0.713 -0.026252659 1.2963181e-38 306 261
-0.016251646 0.713 -0.026252659 1.2963181e-38 307 261
-0.014959441 0.71100003 -0.026179021 1.3146841e-38 308 261
-0.01371282 0.71100003 -0.026179021 1.2593667e-38 309 261
-0.0124662 0.71100003 -0.026179021 1.259079e-38 310 261
-0.011203799 0.70999998 -0.026142199 1.2313849e-38 311 261
-0.0099589331 0.70999998 -0.026142199 1.240389e-38 312 261
-0.0087140659 0.70999998 -0.026142199 1.2311696e-38 313 261
-0.0074691991 0.70999998 -0.026142199 1.2313137e-38 314 261
-0.0062243328 0.70999998 -0.026142199 1.2497887e-38 315 261
-0.0049794666 0.70999998 -0.026142199 1.2591156e-38 316 261
-0.0037345996 0.70999998 -0.026142199 1.2591156e-38 317 261
-0.0024897333 0.70999998 -0.026142199 1.2774821e-38 318 261
-0.0012448666 0.70999998 -0.026142199 1.2590431e-38 319 261
0 0.70999998 -0.026142199 1.2406404e-38 320 261
0.00124662 0.71100003 -0.026179021 1.2406404e-38 321 261
0.0024932399 0.71100003 -0.026179021 1.2130546e-38 322 261
0.0037398601 0.71100003 -0.026179021 1.2130546e-38 323 261
0.0050005065 0.713 -0.026252659 1.2222026e-38 324 261
0.0062506334 0.713 -0.026252659 1.2222026e-38 325 261
0.0075112795 0.71399999 -0.026289478 1.2039076e-38 326 261
0.0087631596 0.71399999 -0.026289478 1.2039076e-38 327 261
0.010043093 0.71600002 -0.026363119 1.1581337e-38 328 261
0.01131426 0.71700001 -0.02639994 1.1673532e-38 329 261
0.012606465 0.71899998 -0.02647358 1.1581705e-38 330 261
0.013867113 0.71899998 -0.02647358 1.1673901e-38 331 261
0.0151488 0.72000003 -0.026510401 1.1118209e-38 332 261
0.0164112 0.72000003 -0.026510401 1.1486991e-38 333 261
0.017722692 0.722 -0.026584039 1.4460999e-38 334 261
-0.037016369 0.72799999 -0.028081384 1.335862e-38 291 262
-0.035739943 0.72799999 -0.028081384 1.2690932e-38 292 262
-0.03441618 0.727 -0.028042812 1.1768617e-38 293 262
-0.032959159 0.72299999 -0.02788852 1.2685882e-38 294 262
-0.031647664 0.722 -0.027849946 1.2040513e-38 295 262
-0.030381758 0.722 -0.027849946 1.2406054e-38 296 262
-0.029035201 0.72000003 -0.027772799 1.2222023e-38 297 262
-0.027734226 0.71899998 -0.027734226 1.231314e-38 298 262
-0.02647358 0.71899998 -0.027734226 1.231314e-38 299 262
-0.0251428 0.71700001 -0.027657079 1.2405338e-38 300 262
-0.023852346 0.71600002 -0.027618507 1.2497534e-38 301 262
-0.022596961 0.71600002 -0.027618507 1.2590452e-38 302 262
-0.021341572 0.71600002 -0.027618507 1.2867039e-38 303 262
-0.020086186 0.71600002 -0.027618507 1.2960677e-38 304 262
-0.018778199 0.71399999 -0.02754136 1.3329459e-38 305 262
-0.017501773 0.713 -0.027502786 1.2964993e-38 306 262
-0.01620606 0.71100003 -0.027425639 1.3425971e-38 307 262
-0.014959441 0.71100003 -0.027425639 1.3151539e-38 308 262
-0.01371282 0.71100003 -0.027425639 1.2782397e-38 309 262
-0.012448666 0.70999998 -0.027387066 1.2868476e-38 310 262
-0.011203799 0.70999998 -0.027387066 1.2407856e-38 311 262
-0.0099589331 0.70999998 -0.027387066 1.2587929e-38 312 262
-0.0087140659 0.70999998 -0.027387066 1.2311342e-38 313 262
-0.0074691991 0.70999998 -0.027387066 1.2312772e-38 314 262
-0.0062243328 0.70999998 -0.027387066 1.2588998e-38 315 262
-0.0049794666 0.70999998 -0.027387066 1.2498596e-38 316 262
-0.00372408 0.708 -0.027309919 1.259079e-38 317 262
-0.00248272 0.708 -0.027309919 1.2590433e-38 318 262
-0.00124136 0.708 -0.027309919 1.2498237e-38 319 262
0 0.70999998 -0.027387066 1.222202e-38 320 262
0.0012448666 0.70999998 -0.027387066 1.2129824e-38 321 262
0.0024897333 0.70999998 -0.027387066 1.2129827e-38 322 262
0.0037398601 0.71100003 -0.027425639 1.2129827e-38 323 262
0.0049864799 0.71100003 -0.027425639 1.231314e-38 324 262
0.0062506334 0.713 -0.027502786 1.2405335e-38 325 262
0.0075112795 0.71399999 -0.02754136 1.1854682e-38 326 262
0.0087631596 0.71399999 -0.02754136 1.1946878e-38 327 262
0.010043093 0.71600002 -0.027618507 1.1672808e-38 328 262
0.01131426 0.71700001 -0.027657079 1.1765005e-38 329 262
0.0125714 0.71700001 -0.027657079 1.1672455e-38 330 262
0.013867113 0.71899998 -0.027734226 1.1764652e-38 331 262
0.01512776 0.71899998 -0.027734226 1.1026001e-38 332 262
0.0164112 0.72000003 -0.027772799 1.1210032e-38 333 262
0.017673599 0.72000003 -0.027772799 1.3998212e-38 334 262
-0.036965527 0.727 -0.029317487 1.3726684e-38 291 263
-0.035690852 0.727 -0.029317487 1.2876041e-38 292 263
-0.034321502 0.72500002 -0.029236834 1.2046279e-38 293 263
-0.032959159 0.72299999 -0.029156178 1.2686961e-38 294 263
-0.031647664 0.722 -0.029115854 1.2041592e-38 295 263
-0.030381758 0.722 -0.029115854 1.2498607e-38 296 263
-0.029035201 0.72000003 -0.029035201 1.222202e-38 297 263
-0.027734226 0.71899998 -0.028994869 1.2312421e-38 298 263
-0.02647358 0.71899998 -0.028994869 1.2220225e-38 299 263
-0.0251428 0.71700001 -0.028914221 1.2220588e-38 300 263
-0.023852346 0.71600002 -0.028873893 1.2313142e-38 301 263
-0.022596961 0.71600002 -0.028873893 1.2497178e-38 302 263
-0.021341572 0.71600002 -0.028873893 1.286596e-38 303 263
-0.020030079 0.71399999 -0.028793238 1.2868125e-38 304 263
-0.018778199 0.71399999 -0.028793238 1.3513495e-38 305 263
-0.017501773 0.713 -0.028752912 1.3149387e-38 306 263
-0.01620606 0.71100003 -0.028672259 1.3886952e-38 307 263
-0.014959441 0.71100003 -0.028672259 1.36154e-38 308 263
-0.01371282 0.71100003 -0.028672259 1.36154e-38 309 263
-0.012448666 0.70999998 -0.028631933 1.3425971e-38 310 263
-0.011203799 0.70999998 -0.028631933 1.19512e-38 311 263
-0.0099589331 0.70999998 -0.028631933 1.2680124e-38 312 263
-0.0087140659 0.70999998 -0.028631933 1.2587929e-38 313 263
-0.0074691991 0.70999998 -0.028631933 1.2496086e-38 314 263
-0.0062243328 0.70999998 -0.028631933 1.2588282e-38 315 263
-0.0049654399 0.708 -0.02855128 1.231349e-38 316 263
-0.00372408 0.708 -0.02855128 1.2406043e-38 317 263
-0.00248272 0.708 -0.02855128 1.231349e-38 318 263
-0.00124136 0.708 -0.02855128 1.231349e-38 319 263
0 0.708 -0.02855128 1.2128745e-38 320 263
0.0012448666 0.70999998 -0.028631933 1.2220941e-38 321 263
0.0024897333 0.70999998 -0.028631933 1.2220222e-38 322 263
0.0037345996 0.70999998 -0.028631933 1.2312418e-38 323 263
0.0049864799 0.71100003 -0.028672259 1.2220941e-38 324 263
0.0062506334 0.713 -0.028752912 1.2313137e-38 325 263
0.0075112795 0.71399999 -0.028793238 1.1945796e-38 326 263
0.0087631596 0.71399999 -0.028793238 1.2130546e-38 327 263
0.010043093 0.71600002 -0.028873893 1.1672808e-38 328 263
0.01129848 0.71600002 -0.028873893 1.1672808e-38 329 263
0.0125714 0.71700001 -0.028914221 1.1396225e-38 330 263
0.013867113 0.71899998 -0.028994869 1.1488421e-38 331 263
0.01512776 0.71899998 -0.028994869 1.1026358e-38 332 263
0.0164112 0.72000003 -0.029035201 1.1210388e-38 333 263
0.017673599 0.72000003 -0.029035201 1.3812015e-38 334 263
-0.037016369 0.72799999 -0.030634239 1.4279858e-38 291 264
-0.035690852 0.727 -0.030592158 1.3061873e-38 292 264
-0.034321502 0.72500002 -0.030508002 1.2048081e-38 293 264
-0.033050332 0.72500002 -0.030508002 1.3056095e-38 294 264
-0.031691495 0.72299999 -0.030423839 1.2410726e-38 295 264
-0.030381758 0.722 -0.030381758 1.2683351e-38 296 264
-0.029035201 0.72000003 -0.0302976 1.2406404e-38 297 264
-0.027734226 0.71899998 -0.030255521 1.2404969e-38 298 264
-0.02647358 0.71899998 -0.030255521 1.2220578e-38 299 264
-0.0251428 0.71700001 -0.030171359 1.2220225e-38 300 264
-0.023852346 0.71600002 -0.03012928 1.2220225e-38 301 264
-0.022596961 0.71600002 -0.03012928 1.2312786e-38 302 264
-0.021341572 0.71600002 -0.03012928 1.2773765e-38 303 264
-0.020030079 0.71399999 -0.030045118 1.268374e-38 304 264
-0.018751899 0.713 -0.030003037 1.3329109e-38 305 264
-0.017501773 0.713 -0.030003037 1.3149405e-38 306 264
-0.01620606 0.71100003 -0.029918881 1.4440144e-38 307 264
-0.014959441 0.71100003 -0.029918881 1.3708341e-38 308 264
-0.013693533 0.70999998 -0.029876797 1.3892732e-38 309 264
-0.012448666 0.70999998 -0.029876797 1.3891285e-38 310 264
-0.011203799 0.70999998 -0.029876797 1.1955176e-38 311 264
-0.0099589331 0.70999998 -0.029876797 1.2865607e-38 312 264
-0.008689519 0.708 -0.02979264 1.2404988e-38 313 264
-0.0074481601 0.708 -0.02979264 1.2312418e-38 314 264
-0.0062243328 0.70999998 -0.029876797 1.2220222e-38 315 264
-0.0049654399 0.708 -0.02979264 1.2037983e-38 316 264
-0.00372408 0.708 -0.02979264 1.2037983e-38 317 264
-0.00248272 0.708 -0.02979264 1.2128745e-38 318 264
-0.00124136 0.708 -0.02979264 1.1944714e-38 319 264
0 0.708 -0.02979264 1.1944358e-38 320 264
0.00124136 0.708 -0.02979264 1.1944358e-38 321 264
0.0024897333 0.70999998 -0.029876797 1.2221297e-38 322 264
0.0037345996 0.70999998 -0.029876797 1.2313493e-38 323 264
0.0049864799 0.71100003 -0.029918881 1.213018e-38 324 264
0.0062330998 0.71100003 -0.029918881 1.213018e-38 325 264
0.0075007593 0.713 -0.030003037 1.185468e-38 326 264
0.0087631596 0.71399999 -0.030045118 1.185468e-38 327 264
0.010043093 0.71600002 -0.03012928 1.1488777e-38 328 264
0.01129848 0.71600002 -0.03012928 1.1396222e-38 329 264
0.0125714 0.71700001 -0.030171359 1.1303674e-38 330 264
0.013867113 0.71899998 -0.030255521 1.1303674e-38 331 264
0.01512776 0.71899998 -0.030255521 1.1302583e-38 332 264
0.016388407 0.71899998 -0.030255521 1.1486976e-38 333 264
0.017673599 0.72000003 -0.0302976 1.3533273e-38 334 264
0.018935999 0.72000003 -0.0302976 1.6022194e-38 335 264
-0.036965527 0.727 -0.03186683 1.4557163e-38 291 265
-0.035690852 0.727 -0.03186683 1.3063672e-38 292 265
-0.034321502 0.72500002 -0.031779166 1.1957683e-38 293 265
-0.033050332 0.72500002 -0.031779166 1.3058258e-38 294 265
-0.031691495 0.72299999 -0.031691495 1.2228857e-38 295 265
-0.030381758 0.722 -0.031647664 1.2593319e-38 296 265
-0.029035201 0.72000003 -0.03156 1.2132343e-38 297 265
-0.027772799 0.72000003 -0.03156 1.2405332e-38 298 265
-0.02647358 0.71899998 -0.031516165 1.2313137e-38 299 265
-0.0251428 0.71700001 -0.031428497 1.2220222e-38 300 265
-0.023852346 0.71600002 -0.031384666 1.2128027e-38 301 265
-0.022596961 0.71600002 -0.031384666 1.2312421e-38 302 265
-0.021341572 0.71600002 -0.031384666 1.2680843e-38 303 265
-0.020030079 0.71399999 -0.031296998 1.2589743e-38 304 265
-0.018751899 0.713 -0.031253166 1.3142917e-38 305 265
-0.01745268 0.71100003 -0.031165501 1.2963939e-38 306 265
-0.01620606 0.71100003 -0.031165501 1.4254678e-38 307 265
-0.014938398 0.70999998 -0.031121666 1.3710139e-38 308 265
-0.013693533 0.70999998 -0.031121666 1.3894171e-38 309 265
-0.012448666 0.70999998 -0.031121666 1.3709413e-38 310 265
-0.011203799 0.70999998 -0.031121666 1.1773305e-38 311 265
-0.0099308798 0.708 -0.031034 1.2683016e-38 312 265
-0.008689519 0.708 -0.031034 1.2314235e-38 313 265
-0.0074481601 0.708 -0.031034 1.2220222e-38 314 265
-0.0062067998 0.708 -0.031034 1.2220222e-38 315 265
-0.0049654399 0.708 -0.031034 1.2129101e-38 316 265
-0.0037188199 0.70700002 -0.030990168 1.1945072e-38 317 265
-0.0024792133 0.70700002 -0.030990168 1.1943637e-38 318 265
-0.0012396066 0.70700002 -0.030990168 1.1943637e-38 319 265
0 0.708 -0.031034 1.1852519e-38 320 265
0.00124136 0.708 -0.031034 1.1944714e-38 321 265
0.00248272 0.708 -0.031034 1.194543e-38 322 265
0.0037345996 0.70999998 -0.031121666 1.213018e-38 323 265
0.0049864799 0.71100003 -0.031165501 1.1855033e-38 324 265
0.0062330998 0.71100003 -0.031165501 1.1947228e-38 325 265
0.0074797203 0.71100003 -0.031165501 1.1579172e-38 326 265
0.0087508867 0.713 -0.031253166 1.1579172e-38 327 265
0.01001504 0.71399999 -0.031296998 1.1487342e-38 328 265
0.01129848 0.71600002 -0.031384666 1.1395146e-38 329 265
0.012553867 0.71600002 -0.031384666 1.1394074e-38 330 265
0.013828539 0.71700001 -0.031428497 1.148627e-38 331 265
0.015085679 0.71700001 -0.031428497 1.1301509e-38 332 265
0.016342819 0.71700001 -0.031428497 1.1762487e-38 333 265
0.017649053 0.71899998 -0.031516165 1.3071215e-38 334 265
0.018909698 0.71899998 -0.031516165 1.6021115e-38 335 265
-0.036965527 0.727 -0.033141505 1.4834473e-38 291 266
-0.035690852 0.727 -0.033141505 1.3249141e-38 292 266
-0.034321502 0.72500002 -0.033050332 1.2050599e-38 293 266
-0.033050332 0.72500002 -0.033050332 1.3150443e-38 294 266
-0.031691495 0.72299999 -0.032959159 1.2781301e-38 295 266
-0.030381758 0.722 -0.032913569 1.2778418e-38 296 266
-0.029035201 0.72000003 -0.0328224 1.231744e-38 297 266
-0.027772799 0.72000003 -0.0328224 1.24986e-38 298 266
-0.02647358 0.71899998 -0.032776814 1.2037983e-38 299 266
-0.0251428 0.71700001 -0.032685637 1.240389e-38 300 266
-0.023852346 0.71600002 -0.032640055 1.240389e-38 301 266
-0.022596961 0.71600002 -0.032640055 1.2495736e-38 302 266
-0.021341572 0.71600002 -0.032640055 1.2587931e-38 303 266
-0.020030079 0.71399999 -0.032548878 1.2221332e-38 304 266
-0.018751899 0.713 -0.032503292 1.2498279e-38 305 266
-0.01745268 0.71100003 -0.032412119 1.2594083e-38 306 266
-0.01620606 0.71100003 -0.032412119 1.3700432e-38 307 266
-0.014938398 0.70999998 -0.032366529 1.361399e-38 308 266
-0.013693533 0.70999998 -0.032366529 1.3983133e-38 309 266
