# .PCD v.7 - Point Cloud Data file format
FIELDS x y z rgb imX imY
SIZE 4 4 4 4 4 4
TYPE F F F F F F
COUNT 1 1 1 1 1 1
WIDTH 839
HEIGHT 1
VIEWPOINT 0 0 0 1 0 0 0
POINTS 839
DATA ascii
-0.020566599 0.69 -0.021776399 9.8285505e-39 303 258
-0.019356798 0.69 -0.021776399 9.5537615e-39 304 258
-0.0181733 0.69099998 -0.021807959 9.3697317e-39 305 258
-0.016961746 0.69099998 -0.021807959 9.5537615e-39 306 258
-0.015750192 0.69099998 -0.021807959 9.5537615e-39 307 258
-0.014580719 0.69300002 -0.021871079 9.3697317e-39 308 258
-0.01336566 0.69300002 -0.021871079 9.2771788e-39 309 258
-0.012150601 0.69300002 -0.021871079 9.2775375e-39 310 258
-0.010935539 0.69300002 -0.021871079 9.2775375e-39 311 258
-0.0097204801 0.69300002 -0.021871079 9.2775375e-39 312 258
-0.0085054198 0.69300002 -0.021871079 9.3697317e-39 313 258
-0.0073008798 0.69400001 -0.021902639 9.1860607e-39 314 258
-0.0060840664 0.69400001 -0.021902639 9.1860607e-39 315 258
-0.0048672534 0.69400001 -0.021902639 9.1860607e-39 316 258
-0.0036504399 0.69400001 -0.021902639 9.0938665e-39 317 258
-0.0024336267 0.69400001 -0.021902639 8.9101955e-39 318 258
-0.0012168133 0.69400001 -0.021902639 9.0023898e-39 319 258
0 0.69599998 -0.021965759 9.185702e-39 320 258
0.0012203199 0.69599998 -0.021965759 9.185702e-39 321 258
0.0024406398 0.69599998 -0.021965759 9.1853433e-39 322 258
0.0036609597 0.69599998 -0.021965759 9.1853433e-39 323 258
0.0048812795 0.69599998 -0.021965759 9.0942252e-39 324 258
0.0061103669 0.69700003 -0.02199732 9.0942252e-39 325 258
0.0073429602 0.69800001 -0.02202888 9.0031072e-39 326 258
0.0085667865 0.69800001 -0.02202888 9.0031072e-39 327 258
0.0098186666 0.69999999 -0.022091998 9.0031072e-39 328 258
0.011045999 0.69999999 -0.022091998 9.0031072e-39 329 258
0.012325933 0.70300001 -0.02218668 9.0031072e-39 330 258
0.013577812 0.704 -0.022218239 9.0031072e-39 331 258
0.014812159 0.704 -0.022218239 9.094584e-39 332 258
0.016092092 0.70599997 -0.022281358 9.1867782e-39 333 258
0.017354494 0.70700002 -0.022312919 9.3711667e-39 334 258
0.0186204 0.708 -0.022344479 9.5555551e-39 335 258
0.01994592 0.71100003 -0.022439159 9.553044e-39 336 258
0.021252153 0.713 -0.022502279 1.2134509e-38 337 258
0.022502279 0.713 -0.022502279 1.2337979e-38 338 258
-0.054810952 0.727 -0.024218792 1.5204698e-38 277 259
-0.053536277 0.727 -0.024218792 1.57568e-38 278 259
-0.052117832 0.72500002 -0.024152167 1.5664603e-38 279 259
-0.050706398 0.72299999 -0.024085538 1.196418e-38 280 259
-0.04937036 0.722 -0.024052227 1.048905e-38 281 259
-0.0479712 0.72000003 -0.0239856 1.1957308e-38 282 259
-0.0467088 0.72000003 -0.0239856 1.149633e-38 283 259
-0.045446403 0.72000003 -0.0239856 1.1770024e-38 284 259
-0.044183999 0.72000003 -0.0239856 1.1585632e-38 285 259
-0.041967787 0.704 -0.023452586 1.1308696e-38 286 259
-0.040559858 0.70099998 -0.023352645 1.1124305e-38 287 259
-0.039274666 0.69999999 -0.023319334 1.0939912e-38 288 259
-0.037938625 0.69800001 -0.023252707 1.0571131e-38 289 259
-0.0367148 0.69800001 -0.023252707 1.0844481e-38 290 259
-0.035440128 0.69700003 -0.023219392 1.0659733e-38 291 259
-0.034218054 0.69700003 -0.023219392 1.0108004e-38 292 259
-0.032853961 0.69400001 -0.023119451 1.0108004e-38 293 259
-0.031637147 0.69400001 -0.023119451 9.7417639e-39 294 259
-0.0303765 0.69300002 -0.02308614 1.0479329e-38 295 259
-0.029161438 0.69300002 -0.02308614 1.0300718e-38 296 259
-0.027946379 0.69300002 -0.02308614 1.1038283e-38 297 259
-0.026654173 0.69099998 -0.023019511 1.140634e-38 298 259
-0.025405798 0.69 -0.022986198 9.2858402e-39 299 259
-0.024195999 0.69 -0.022986198 1.0200221e-38 300 259
-0.022986198 0.69 -0.022986198 9.5548517e-39 301 259
-0.021776399 0.69 -0.022986198 9.6459557e-39 302 259
-0.020566599 0.69 -0.022986198 9.5534027e-39 303 259
-0.019356798 0.69 -0.022986198 9.3704492e-39 304 259
-0.018146999 0.69 -0.022986198 9.3704492e-39 305 259
-0.016961746 0.69099998 -0.023019511 9.1867782e-39 306 259
-0.015750192 0.69099998 -0.023019511 9.0942252e-39 307 259
-0.014580719 0.69300002 -0.02308614 9.2778962e-39 308 259
-0.01336566 0.69300002 -0.02308614 9.2778962e-39 309 259
-0.012150601 0.69300002 -0.02308614 9.1860607e-39 310 259
-0.010935539 0.69300002 -0.02308614 9.278255e-39 311 259
-0.0097204801 0.69300002 -0.02308614 9.278255e-39 312 259
-0.0085054198 0.69300002 -0.02308614 9.1860607e-39 313 259
-0.0072903596 0.69300002 -0.02308614 9.2775375e-39 314 259
-0.0060840664 0.69400001 -0.023119451 9.2775375e-39 315 259
-0.0048672534 0.69400001 -0.023119451 8.9105543e-39 316 259
-0.0036504399 0.69400001 -0.023119451 9.0027485e-39 317 259
-0.0024336267 0.69400001 -0.023119451 8.910913e-39 318 259
-0.0012203199 0.69599998 -0.023186078 8.910913e-39 319 259
0 0.69599998 -0.023186078 8.727242e-39 320 259
0.0012203199 0.69599998 -0.023186078 8.727242e-39 321 259
0.0024406398 0.69599998 -0.023186078 8.9105543e-39 322 259
0.0036609597 0.69599998 -0.023186078 9.0027485e-39 323 259
0.0048882933 0.69700003 -0.023219392 8.8194362e-39 324 259
0.0061103669 0.69700003 -0.023219392 8.8194362e-39 325 259
0.0073429602 0.69800001 -0.023252707 8.636124e-39 326 259
0.0085667865 0.69800001 -0.023252707 8.636124e-39 327 259
0.0098186666 0.69999999 -0.023319334 8.727242e-39 328 259
0.01109334 0.70300001 -0.023419274 8.727242e-39 329 259
0.012325933 0.70300001 -0.023419274 8.8194362e-39 330 259
0.013577812 0.704 -0.023452586 8.8194362e-39 331 259
0.014812159 0.704 -0.023452586 8.9119892e-39 332 259
0.016092092 0.70599997 -0.023519212 8.9119892e-39 333 259
0.017354494 0.70700002 -0.023552528 9.1882131e-39 334 259
0.0186204 0.708 -0.023585839 9.2807661e-39 335 259
0.019917866 0.70999998 -0.023652466 9.5548377e-39 336 259
0.021252153 0.713 -0.023752406 1.1583135e-38 337 259
-0.054433983 0.722 -0.025318133 1.5388369e-38 277 260
-0.053168077 0.722 -0.025318133 1.5019954e-38 278 260
-0.051902171 0.722 -0.025318133 1.4282387e-38 279 260
-0.050636265 0.722 -0.025318133 1.0118106e-38 280 260
-0.04937036 0.722 -0.025318133 9.7489637e-39 281 260
-0.0479712 0.72000003 -0.025248 1.1863317e-38 282 260
-0.0467088 0.72000003 -0.025248 1.158673e-38 283 260
-0.045446403 0.72000003 -0.025248 1.158456e-38 284 260
-0.044183999 0.72000003 -0.025248 1.1492364e-38 285 260
-0.041788943 0.70099998 -0.024581732 1.0939556e-38 286 260
-0.040502001 0.69999999 -0.024546666 1.0939556e-38 287 260
-0.039274666 0.69999999 -0.024546666 1.0846288e-38 288 260
-0.037938625 0.69800001 -0.024476532 1.0661897e-38 289 260
-0.036662199 0.69700003 -0.024441468 1.0660455e-38 290 260
-0.035440128 0.69700003 -0.024441468 1.0383868e-38 291 260
-0.034168959 0.69599998 -0.0244064 1.0015809e-38 292 260
-0.032853961 0.69400001 -0.024336265 9.9236146e-39 293 260
-0.031637147 0.69400001 -0.024336265 1.0107657e-38 294 260
-0.0303765 0.69300002 -0.024301201 1.0476079e-38 295 260
-0.029161438 0.69300002 -0.024301201 1.0477897e-38 296 260
-0.027865725 0.69099998 -0.024231065 1.0662288e-38 297 260
-0.026654173 0.69099998 -0.024231065 1.0023037e-38 298 260
-0.025405798 0.69 -0.024195999 9.0085246e-39 299 260
-0.024195999 0.69 -0.024195999 9.9225594e-39 300 260
-0.022986198 0.69 -0.024195999 9.8303624e-39 301 260
-0.021776399 0.69 -0.024195999 9.3697331e-39 302 260
-0.020566599 0.69 -0.024195999 9.3697331e-39 303 260
-0.019356798 0.69 -0.024195999 9.185702e-39 304 260
-0.018146999 0.69 -0.024195999 9.185702e-39 305 260
-0.016961746 0.69099998 -0.024231065 9.185702e-39 306 260
-0.015750192 0.69099998 -0.024231065 9.2778962e-39 307 260
-0.014538639 0.69099998 -0.024231065 9.2778962e-39 308 260
-0.01336566 0.69300002 -0.024301201 9.185702e-39 309 260
-0.012150601 0.69300002 -0.024301201 9.1860607e-39 310 260
-0.010935539 0.69300002 -0.024301201 9.1860607e-39 311 260
-0.0097204801 0.69300002 -0.024301201 9.2775375e-39 312 260
-0.0085054198 0.69300002 -0.024301201 9.1853433e-39 313 260
-0.0072903596 0.69300002 -0.024301201 9.0935078e-39 314 260
-0.0060840664 0.69400001 -0.024336265 9.185702e-39 315 260
-0.0048672534 0.69400001 -0.024336265 8.910913e-39 316 260
-0.0036504399 0.69400001 -0.024336265 8.910913e-39 317 260
-0.0024336267 0.69400001 -0.024336265 8.910913e-39 318 260
-0.0012203199 0.69599998 -0.0244064 8.910913e-39 319 260
0 0.69599998 -0.0244064 8.910913e-39 320 260
0.0012203199 0.69599998 -0.0244064 8.910913e-39 321 260
0.0024406398 0.69599998 -0.0244064 8.910913e-39 322 260
0.0036609597 0.69599998 -0.0244064 9.0031072e-39 323 260
0.0048882933 0.69700003 -0.024441468 8.8194362e-39 324 260
0.0061103669 0.69700003 -0.024441468 8.8194362e-39 325 260
0.0073429602 0.69800001 -0.024476532 8.636124e-39 326 260
0.0085667865 0.69800001 -0.024476532 8.5439297e-39 327 260
0.0098186666 0.69999999 -0.024546666 8.5439297e-39 328 260
0.01109334 0.70300001 -0.024651866 8.5439297e-39 329 260
0.012325933 0.70300001 -0.024651866 8.910913e-39 330 260
0.013577812 0.704 -0.024686933 9.0031072e-39 331 260
0.014812159 0.704 -0.024686933 8.9119892e-39 332 260
0.016092092 0.70599997 -0.024757065 8.9119892e-39 333 260
0.017354494 0.70700002 -0.024792133 9.3711667e-39 334 260
0.0186204 0.708 -0.024827199 9.4633609e-39 335 260
0.019917866 0.70999998 -0.024897331 9.6463144e-39 336 260
0.021192541 0.71100003 -0.024932399 1.1582411e-38 337 260
0.022439159 0.71100003 -0.024932399 1.1875193e-38 338 260
-0.055468451 0.71899998 -0.02647358 1.538765e-38 276 261
-0.054433983 0.722 -0.026584039 1.5572041e-38 277 261
-0.053168077 0.722 -0.026584039 1.4374217e-38 278 261
-0.051758397 0.72000003 -0.026510401 1.2899087e-38 279 261
-0.050496001 0.72000003 -0.026510401 9.8386258e-39 280 261
-0.0492336 0.72000003 -0.026510401 1.0114854e-38 281 261
-0.0479712 0.72000003 -0.026510401 1.1678557e-38 282 261
-0.0467088 0.72000003 -0.026510401 1.1494165e-38 283 261
-0.045446403 0.72000003 -0.026510401 1.1309417e-38 284 261
-0.044183999 0.72000003 -0.026510401 1.0940636e-38 285 261
-0.041729331 0.69999999 -0.025773998 1.0572578e-38 286 261
-0.040502001 0.69999999 -0.025773998 1.0480383e-38 287 261
-0.039162453 0.69800001 -0.025700359 1.0662976e-38 288 261
-0.037938625 0.69800001 -0.025700359 1.0386389e-38 289 261
-0.036662199 0.69700003 -0.025663542 1.0659376e-38 290 261
-0.035440128 0.69700003 -0.025663542 1.0383151e-38 291 261
-0.034168959 0.69599998 -0.025626717 1.0015091e-38 292 261
-0.032853961 0.69400001 -0.025553079 1.0015091e-38 293 261
-0.031637147 0.69400001 -0.025553079 9.8317931e-39 294 261
-0.0303765 0.69300002 -0.02551626 1.010802e-38 295 261
-0.029161438 0.69300002 -0.02551626 1.0109472e-38 296 261
-0.027865725 0.69099998 -0.025442619 1.0201667e-38 297 261
-0.026654173 0.69099998 -0.025442619 1.0109469e-38 298 261
-0.025405798 0.69 -0.025405798 9.8328805e-39 299 261
-0.024195999 0.69 -0.025405798 9.6477648e-39 300 261
-0.022986198 0.69 -0.025405798 9.279341e-39 301 261
-0.021807959 0.69099998 -0.025442619 9.3697331e-39 302 261
-0.020566599 0.69 -0.025405798 9.1853433e-39 303 261
-0.019356798 0.69 -0.025405798 9.1846258e-39 304 261
-0.018146999 0.69 -0.025405798 9.1846258e-39 305 261
-0.0169372 0.69 -0.025405798 9.185702e-39 306 261
-0.015727401 0.69 -0.025405798 9.093149e-39 307 261
-0.014538639 0.69099998 -0.025442619 9.093149e-39 308 261
-0.013327086 0.69099998 -0.025442619 9.093149e-39 309 261
-0.012115533 0.69099998 -0.025442619 9.0935078e-39 310 261
-0.01090398 0.69099998 -0.025442619 9.0935078e-39 311 261
-0.0097204801 0.69300002 -0.02551626 9.0927903e-39 312 261
-0.0085054198 0.69300002 -0.02551626 9.0927903e-39 313 261
-0.0072903596 0.69300002 -0.02551626 9.0935078e-39 314 261
-0.0060753003 0.69300002 -0.02551626 8.9094781e-39 315 261
-0.0048672534 0.69400001 -0.025553079 9.0935078e-39 316 261
-0.0036504399 0.69400001 -0.025553079 9.185702e-39 317 261
-0.0024336267 0.69400001 -0.025553079 8.910913e-39 318 261
-0.0012203199 0.69599998 -0.025626717 8.910913e-39 319 261
0 0.69599998 -0.025626717 8.6350478e-39 320 261
0.0012203199 0.69599998 -0.025626717 8.6350478e-39 321 261
0.0024406398 0.69599998 -0.025626717 8.4517355e-39 322 261
0.0036609597 0.69599998 -0.025626717 8.5439297e-39 323 261
0.0048882933 0.69700003 -0.025663542 8.727242e-39 324 261
0.0061103669 0.69700003 -0.025663542 8.727242e-39 325 261
0.0073429602 0.69800001 -0.025700359 8.4517355e-39 326 261
0.0085913334 0.69999999 -0.025773998 8.4517355e-39 327 261
0.0098186666 0.69999999 -0.025773998 8.727242e-39 328 261
0.011061779 0.70099998 -0.025810819 8.6350478e-39 329 261
0.012325933 0.70300001 -0.025884461 8.910913e-39 330 261
0.013577812 0.704 -0.02592128 9.0031072e-39 331 261
0.014812159 0.704 -0.02592128 8.819795e-39 332 261
0.016092092 0.70599997 -0.025994917 8.9119892e-39 333 261
0.017354494 0.70700002 -0.02603174 9.0038247e-39 334 261
0.018594101 0.70700002 -0.02603174 9.2804102e-39 335 261
0.01986176 0.708 -0.026068559 9.2800486e-39 336 261
0.021192541 0.71100003 -0.026179021 1.0939206e-38 337 261
0.022439159 0.71100003 -0.026179021 1.1873394e-38 338 261
-0.055468451 0.71899998 -0.027734226 1.5388369e-38 276 262
-0.054207806 0.71899998 -0.027734226 1.5664956e-38 277 262
-0.053020801 0.72000003 -0.027772799 1.3819598e-38 278 262
-0.051758397 0.72000003 -0.027772799 1.1238121e-38 279 262
-0.050496001 0.72000003 -0.027772799 1.0113045e-38 280 262
-0.049165215 0.71899998 -0.027734226 1.085061e-38 281 262
-0.04777132 0.71700001 -0.027657079 1.1586359e-38 282 262
-0.046514176 0.71700001 -0.027657079 1.1494162e-38 283 262
-0.04437336 0.70300001 -0.027117053 1.1033907e-38 284 262
-0.043140765 0.70300001 -0.027117053 1.0849516e-38 285 262
-0.041729331 0.69999999 -0.027001332 1.0388906e-38 286 262
-0.040502001 0.69999999 -0.027001332 1.0204875e-38 287 262
-0.039162453 0.69800001 -0.026924185 1.0753377e-38 288 262
-0.037938625 0.69800001 -0.026924185 1.0568625e-38 289 262
-0.036662199 0.69700003 -0.026885614 1.0567183e-38 290 262
-0.035389278 0.69599998 -0.026847038 1.0383152e-38 291 262
-0.034168959 0.69599998 -0.026847038 1.019948e-38 292 262
-0.032853961 0.69400001 -0.026769891 1.019948e-38 293 262
-0.031591557 0.69300002 -0.02673132 1.0015812e-38 294 262
-0.0303765 0.69300002 -0.02673132 1.0015812e-38 295 262
-0.029077278 0.69099998 -0.026654173 9.8314372e-39 296 262
-0.027865725 0.69099998 -0.026654173 9.8314372e-39 297 262
-0.026654173 0.69099998 -0.026654173 9.7388912e-39 298 262
-0.025405798 0.69 -0.026615599 9.5544985e-39 299 262
-0.024195999 0.69 -0.026615599 9.4623001e-39 300 262
-0.022986198 0.69 -0.026615599 9.3701045e-39 301 262
-0.021807959 0.69099998 -0.026654173 9.3697331e-39 302 262
-0.020566599 0.69 -0.026615599 9.2775375e-39 303 262
-0.019356798 0.69 -0.026615599 9.3682968e-39 304 262
-0.018146999 0.69 -0.026615599 9.3682968e-39 305 262
-0.0169372 0.69 -0.026615599 9.0935078e-39 306 262
-0.015727401 0.69 -0.026615599 9.0935078e-39 307 262
-0.014538639 0.69099998 -0.026654173 9.093149e-39 308 262
-0.013327086 0.69099998 -0.026654173 9.185702e-39 309 262
-0.012115533 0.69099998 -0.026654173 9.093149e-39 310 262
-0.01090398 0.69099998 -0.026654173 9.093149e-39 311 262
-0.0096924258 0.69099998 -0.026654173 9.0935078e-39 312 262
-0.008480873 0.69099998 -0.026654173 9.0935078e-39 313 262
-0.0072903596 0.69300002 -0.02673132 9.1849845e-39 314 262
-0.0060753003 0.69300002 -0.02673132 9.1849845e-39 315 262
-0.00486024 0.69300002 -0.02673132 8.9101955e-39 316 262
-0.0036504399 0.69400001 -0.026769891 9.0023898e-39 317 262
-0.0024336267 0.69400001 -0.026769891 8.9101955e-39 318 262
-0.0012168133 0.69400001 -0.026769891 8.9101955e-39 319 262
0 0.69400001 -0.026769891 8.910913e-39 320 262
0.0012168133 0.69400001 -0.026769891 8.7268833e-39 321 262
0.0024406398 0.69599998 -0.026847038 8.6350478e-39 322 262
0.0036609597 0.69599998 -0.026847038 8.727242e-39 323 262
0.0048882933 0.69700003 -0.026885614 8.6350478e-39 324 262
0.0061103669 0.69700003 -0.026885614 8.6350478e-39 325 262
0.0073429602 0.69800001 -0.026924185 8.8176426e-39 326 262
0.0085913334 0.69999999 -0.027001332 8.8176426e-39 327 262
0.0098186666 0.69999999 -0.027001332 8.6350478e-39 328 262
0.011061779 0.70099998 -0.027039904 8.6350478e-39 329 262
0.012325933 0.70300001 -0.027117053 9.0031072e-39 330 262
0.013577812 0.704 -0.027155625 9.0031072e-39 331 262
0.014812159 0.704 -0.027155625 9.0031072e-39 332 262
0.016092092 0.70599997 -0.027232772 9.0953014e-39 333 262
0.017329946 0.70599997 -0.027232772 9.2796899e-39 334 262
0.018594101 0.70700002 -0.027271347 9.4644385e-39 335 262
0.019833706 0.70700002 -0.027271347 9.2800486e-39 336 262
0.021073313 0.70700002 -0.027271347 1.1031756e-38 337 262
0.022312919 0.70700002 -0.027271347 1.1782274e-38 338 262
-0.055468451 0.71899998 -0.028994869 1.5205054e-38 276 263
-0.054207806 0.71899998 -0.028994869 1.5481641e-38 277 263
-0.05294716 0.71899998 -0.028994869 1.3357894e-38 278 263
-0.05168651 0.71899998 -0.028994869 9.8548206e-39 279 263
-0.050425861 0.71899998 -0.028994869 1.0295635e-38 280 263
-0.04902846 0.71700001 -0.028914221 1.1125396e-38 281 263
-0.04777132 0.71700001 -0.028914221 1.1585281e-38 282 263
-0.046514176 0.71700001 -0.028914221 1.1400891e-38 283 263
-0.044247117 0.70099998 -0.028268991 1.0758046e-38 284 263
-0.043018032 0.70099998 -0.028268991 1.0573296e-38 285 263
-0.041610107 0.69800001 -0.028148014 1.038855e-38 286 263
-0.040386278 0.69800001 -0.028148014 1.0112323e-38 287 263
-0.039162453 0.69800001 -0.028148014 1.0568625e-38 288 263
-0.037884273 0.69700003 -0.028107686 1.0384234e-38 289 263
-0.036662199 0.69700003 -0.028107686 1.0567181e-38 290 263
-0.035389278 0.69599998 -0.028067358 1.0567181e-38 291 263
-0.034070771 0.69400001 -0.027986705 1.0200556e-38 292 263
-0.032853961 0.69400001 -0.027986705 1.0476783e-38 293 263
-0.031591557 0.69300002 -0.027946379 1.0017609e-38 294 263
-0.0303765 0.69300002 -0.027946379 9.9254138e-39 295 263
-0.029077278 0.69099998 -0.027865725 9.7399604e-39 296 263
-0.027865725 0.69099998 -0.027865725 9.4637322e-39 297 263
-0.026654173 0.69099998 -0.027865725 9.7378108e-39 298 263
-0.025405798 0.69 -0.027825398 9.461584e-39 299 263
-0.024195999 0.69 -0.027825398 9.4615784e-39 300 263
-0.022986198 0.69 -0.027825398 9.3693828e-39 301 263
-0.021807959 0.69099998 -0.027865725 9.3700905e-39 302 263
-0.020566599 0.69 -0.027825398 9.2778962e-39 303 263
-0.019356798 0.69 -0.027825398 9.2771788e-39 304 263
-0.018146999 0.69 -0.027825398 9.1849845e-39 305 263
-0.0169372 0.69 -0.027825398 9.185702e-39 306 263
-0.015727401 0.69 -0.027825398 9.185702e-39 307 263
-0.014517599 0.69 -0.027825398 9.093149e-39 308 263
-0.0133078 0.69 -0.027825398 9.093149e-39 309 263
-0.012097999 0.69 -0.027825398 8.9101955e-39 310 263
-0.01090398 0.69099998 -0.027865725 8.9101955e-39 311 263
-0.0096924258 0.69099998 -0.027865725 8.9101955e-39 312 263
-0.008480873 0.69099998 -0.027865725 8.9101955e-39 313 263
-0.0072693196 0.69099998 -0.027865725 9.0023898e-39 314 263
-0.0060753003 0.69300002 -0.027946379 9.0023898e-39 315 263
-0.00486024 0.69300002 -0.027946379 8.910913e-39 316 263
-0.0036451798 0.69300002 -0.027946379 8.7268833e-39 317 263
-0.0024336267 0.69400001 -0.027986705 8.9101955e-39 318 263
-0.0012168133 0.69400001 -0.027986705 8.9101955e-39 319 263
0 0.69400001 -0.027986705 8.910913e-39 320 263
0.0012168133 0.69400001 -0.027986705 8.910913e-39 321 263
0.0024336267 0.69400001 -0.027986705 8.727242e-39 322 263
0.0036609597 0.69599998 -0.028067358 8.727242e-39 323 263
0.0048812795 0.69599998 -0.028067358 8.7265245e-39 324 263
0.0061103669 0.69700003 -0.028107686 8.6343303e-39 325 263
0.0073429602 0.69800001 -0.028148014 8.7254483e-39 326 263
0.0085913334 0.69999999 -0.028228667 8.8176426e-39 327 263
0.0098186666 0.69999999 -0.028228667 8.7268833e-39 328 263
0.01109334 0.70300001 -0.028349647 8.910913e-39 329 263
0.012325933 0.70300001 -0.028349647 9.0949427e-39 330 263
0.013577812 0.704 -0.028389972 9.0949427e-39 331 263
0.014812159 0.704 -0.028389972 9.0949427e-39 332 263
0.016092092 0.70599997 -0.028470624 9.1871369e-39 333 263
0.017329946 0.70599997 -0.028470624 9.3708079e-39 334 263
0.018594101 0.70700002 -0.028510952 9.6477508e-39 335 263
0.019833706 0.70700002 -0.028510952 9.2800486e-39 336 263
0.021073313 0.70700002 -0.028510952 1.1123954e-38 337 263
-0.055468451 0.71899998 -0.030255521 1.5112137e-38 276 264
-0.054207806 0.71899998 -0.030255521 1.5480918e-38 277 264
-0.05294716 0.71899998 -0.030255521 1.2711087e-38 278 264
-0.05168651 0.71899998 -0.030255521 9.3920446e-39 279 264
-0.050425861 0.71899998 -0.030255521 1.0663695e-38 280 264
-0.04902846 0.71700001 -0.030171359 1.1493457e-38 281 264
-0.04777132 0.71700001 -0.030171359 1.1308696e-38 282 264
-0.046514176 0.71700001 -0.030171359 1.1308696e-38 283 264
-0.044247117 0.70099998 -0.029498078 1.0665494e-38 284 264
-0.043018032 0.70099998 -0.029498078 1.0481102e-38 285 264
-0.041610107 0.69800001 -0.029371841 1.0387834e-38 286 264
-0.040386278 0.69800001 -0.029371841 1.0110888e-38 287 264
-0.039162453 0.69800001 -0.029371841 1.029312e-38 288 264
-0.037884273 0.69700003 -0.02932976 1.0200925e-38 289 264
-0.036609598 0.69599998 -0.029287677 1.0384234e-38 290 264
-0.035287585 0.69400001 -0.029203519 1.047643e-38 291 264
-0.034070771 0.69400001 -0.029203519 1.0478585e-38 292 264
-0.03280662 0.69300002 -0.029161438 1.0662976e-38 293 264
-0.031591557 0.69300002 -0.029161438 1.0295989e-38 294 264
-0.030288832 0.69099998 -0.029077278 9.9272061e-39 295 264
-0.029077278 0.69099998 -0.029077278 1.0016175e-38 296 264
-0.027865725 0.69099998 -0.029077278 9.6477508e-39 297 264
-0.026654173 0.69099998 -0.029077278 9.4626532e-39 298 264
-0.025405798 0.69 -0.029035198 9.1860677e-39 299 264
-0.024195999 0.69 -0.029035198 9.1860677e-39 300 264
-0.022986198 0.69 -0.029035198 9.0938721e-39 301 264
-0.021776399 0.69 -0.029035198 9.0942252e-39 302 264
-0.020566599 0.69 -0.029035198 9.002031e-39 303 264
-0.019356798 0.69 -0.029035198 9.093149e-39 304 264
-0.018146999 0.69 -0.029035198 9.185702e-39 305 264
-0.0169372 0.69 -0.029035198 8.9098368e-39 306 264
-0.015727401 0.69 -0.029035198 8.9098368e-39 307 264
-0.014517599 0.69 -0.029035198 8.9091193e-39 308 264
-0.0133078 0.69 -0.029035198 8.9091193e-39 309 264
-0.012097999 0.69 -0.029035198 8.8176426e-39 310 264
-0.01090398 0.69099998 -0.029077278 8.9101955e-39 311 264
-0.0096924258 0.69099998 -0.029077278 8.910913e-39 312 264
-0.008480873 0.69099998 -0.029077278 8.910913e-39 313 264
-0.0072693196 0.69099998 -0.029077278 8.7276007e-39 314 264
-0.0060753003 0.69300002 -0.029161438 8.7276007e-39 315 264
-0.00486024 0.69300002 -0.029161438 8.6350478e-39 316 264
-0.0036451798 0.69300002 -0.029161438 8.727242e-39 317 264
-0.0024336267 0.69400001 -0.029203519 8.9105543e-39 318 264
-0.0012168133 0.69400001 -0.029203519 8.9105543e-39 319 264
0 0.69400001 -0.029203519 8.634689e-39 320 264
0.0012168133 0.69400001 -0.029203519 8.634689e-39 321 264
0.0024336267 0.69400001 -0.029203519 8.6343303e-39 322 264
0.0036609597 0.69599998 -0.029287677 8.7265245e-39 323 264
0.0048812795 0.69599998 -0.029287677 8.8176426e-39 324 264
0.0061103669 0.69700003 -0.02932976 8.5414186e-39 325 264
0.0073429602 0.69800001 -0.029371841 8.7254483e-39 326 264
0.0085913334 0.69999999 -0.029455997 8.7254483e-39 327 264
0.0098326923 0.70099998 -0.029498078 8.8180013e-39 328 264
0.01109334 0.70300001 -0.029582238 9.0023898e-39 329 264
0.012325933 0.70300001 -0.029582238 8.910913e-39 330 264
0.013577812 0.704 -0.029624319 8.910913e-39 331 264
0.014812159 0.704 -0.029624319 9.094584e-39 332 264
0.016092092 0.70599997 -0.029708479 9.1867782e-39 333 264
0.017354494 0.70700002 -0.029750559 9.2800486e-39 334 264
0.018594101 0.70700002 -0.029750559 9.4644371e-39 335 264
0.019833706 0.70700002 -0.029750559 9.1878544e-39 336 264
-0.055699892 0.722 -0.031647664 1.5112502e-38 276 265
-0.054283202 0.72000003 -0.03156 1.5112502e-38 277 265
-0.053020801 0.72000003 -0.03156 1.2431624e-38 278 265
-0.051758397 0.72000003 -0.03156 9.481362e-39 279 265
-0.050425861 0.71899998 -0.031516165 1.0755891e-38 280 265
-0.04902846 0.71700001 -0.031428497 1.0940642e-38 281 265
-0.04777132 0.71700001 -0.031428497 1.1307264e-38 282 265
-0.046514176 0.71700001 -0.031428497 1.1307264e-38 283 265
-0.044247117 0.70099998 -0.030727165 1.0572578e-38 284 265
-0.043018032 0.70099998 -0.030727165 1.0388187e-38 285 265
-0.041729331 0.69999999 -0.030683333 1.0386389e-38 286 265
-0.040386278 0.69800001 -0.030595668 1.0109802e-38 287 265
-0.039162453 0.69800001 -0.030595668 1.0383162e-38 288 265
-0.037884273 0.69700003 -0.030551834 1.0383162e-38 289 265
-0.036609598 0.69599998 -0.030507999 1.0017259e-38 290 265
-0.035287585 0.69400001 -0.030420333 1.0477879e-38 291 265
-0.034021679 0.69300002 -0.0303765 1.0572592e-38 292 265
-0.03280662 0.69300002 -0.0303765 1.1310516e-38 293 265
-0.031591557 0.69300002 -0.0303765 1.0577983e-38 294 265
-0.030288832 0.69099998 -0.030288832 9.9326137e-39 295 265
-0.029077278 0.69099998 -0.030288832 1.010802e-38 296 265
-0.027865725 0.69099998 -0.030288832 9.7395961e-39 297 265
-0.026654173 0.69099998 -0.030288832 9.3701017e-39 298 265
-0.025405798 0.69 -0.030244999 9.0938749e-39 299 265
-0.024195999 0.69 -0.030244999 9.0938721e-39 300 265
-0.022986198 0.69 -0.030244999 9.0938721e-39 301 265
-0.021776399 0.69 -0.030244999 9.0949469e-39 302 265
-0.020566599 0.69 -0.030244999 8.9101955e-39 303 265
-0.019356798 0.69 -0.030244999 9.093149e-39 304 265
-0.018146999 0.69 -0.030244999 9.093149e-39 305 265
-0.0169372 0.69 -0.030244999 8.9091193e-39 306 265
-0.015727401 0.69 -0.030244999 8.9091193e-39 307 265
-0.014517599 0.69 -0.030244999 8.9091193e-39 308 265
-0.0133078 0.69 -0.030244999 8.9091193e-39 309 265
-0.012097999 0.69 -0.030244999 8.8176426e-39 310 265
-0.010888199 0.69 -0.030244999 8.9101955e-39 311 265
-0.0096783992 0.69 -0.030244999 8.7268833e-39 312 265
-0.008480873 0.69099998 -0.030288832 8.910913e-39 313 265
-0.0072693196 0.69099998 -0.030288832 8.910913e-39 314 265
-0.0060753003 0.69300002 -0.0303765 8.910913e-39 315 265
-0.00486024 0.69300002 -0.0303765 8.910913e-39 316 265
-0.0036504399 0.69400001 -0.030420333 8.910913e-39 317 265
-0.0024336267 0.69400001 -0.030420333 8.727242e-39 318 265
-0.0012168133 0.69400001 -0.030420333 8.634689e-39 319 265
0 0.69400001 -0.030420333 8.634689e-39 320 265
0.0012168133 0.69400001 -0.030420333 8.5424948e-39 321 265
0.0024336267 0.69400001 -0.030420333 8.6339716e-39 322 265
0.0036609597 0.69599998 -0.030507999 8.6339716e-39 323 265
0.0048882933 0.69700003 -0.030551834 8.7254483e-39 324 265
0.006119133 0.69800001 -0.030595668 8.5414186e-39 325 265
0.0073639993 0.69999999 -0.030683333 8.7254483e-39 326 265
0.0085913334 0.69999999 -0.030683333 8.8176426e-39 327 265
0.0098186666 0.69999999 -0.030683333 8.7268833e-39 328 265
0.011061779 0.70099998 -0.030727165 8.7268833e-39 329 265
0.012325933 0.70300001 -0.030814834 8.910913e-39 330 265
0.013577812 0.704 -0.030858666 8.910913e-39 331 265
0.014812159 0.704 -0.030858666 9.0031072e-39 332 265
0.016092092 0.70599997 -0.030946331 9.1874957e-39 333 265
0.017354494 0.70700002 -0.030990168 9.2800486e-39 334 265
0.018594101 0.70700002 -0.030990168 9.3722429e-39 335 265
0.019833706 0.70700002 -0.030990168 9.0956602e-39 336 265
-0.054283202 0.72000003 -0.0328224 1.5111783e-38 277 266
-0.05294716 0.71899998 -0.032776814 1.2339426e-38 278 266
-0.051542737 0.71700001 -0.032685637 9.2973308e-39 279 266
-0.0502856 0.71700001 -0.032685637 1.0662976e-38 280 266
-0.048960082 0.71600002 -0.032640055 1.121615e-38 281 266
-0.047571439 0.71399999 -0.032548878 1.0938837e-38 282 266
-0.046319555 0.71399999 -0.032548878 1.1031033e-38 283 266
-0.044436477 0.704 -0.032093015 1.0663692e-38 284 266
-0.043140765 0.70300001 -0.032047424 1.029527e-38 285 266
-0.041729331 0.69999999 -0.031910665 1.0017975e-38 286 266
-0.040386278 0.69800001 -0.031819493 9.6491941e-39 287 266
-0.039162453 0.69800001 -0.031819493 9.7399604e-39 288 266
-0.037884273 0.69700003 -0.03177391 9.9247104e-39 289 266
-0.036609598 0.69599998 -0.031728316 9.834677e-39 290 266
-0.035287585 0.69400001 -0.031637147 1.0203818e-38 291 266
-0.034021679 0.69300002 -0.031591557 1.057728e-38 292 266
-0.03280662 0.69300002 -0.031591557 1.1130453e-38 293 266
-0.031591557 0.69300002 -0.031591557 1.094821e-38 294 266
-0.030288832 0.69099998 -0.031500384 1.0026614e-38 295 266
-0.029077278 0.69099998 -0.031500384 9.9254293e-39 296 266
-0.027865725 0.69099998 -0.031500384 9.3722555e-39 297 266
-0.026654173 0.69099998 -0.031500384 9.3701045e-39 298 266
-0.025405798 0.69 -0.031454802 9.001322e-39 299 266
-0.024195999 0.69 -0.031454802 9.0016751e-39 300 266
-0.022986198 0.69 -0.031454802 9.0938721e-39 301 266
-0.021807959 0.69099998 -0.031500384 9.0027513e-39 302 266
-0.020566599 0.69 -0.031454802 8.9101955e-39 303 266
-0.019356798 0.69 -0.031454802 8.9101955e-39 304 266
-0.018146999 0.69 -0.031454802 8.7261658e-39 305 266
-0.0169372 0.69 -0.031454802 8.9091193e-39 306 266
-0.015727401 0.69 -0.031454802 8.9091193e-39 307 266
-0.014517599 0.69 -0.031454802 8.9091193e-39 308 266
-0.013269227 0.68800002 -0.031363625 8.9091193e-39 309 266
-0.012062933 0.68800002 -0.031363625 8.8176426e-39 310 266
-0.010888199 0.69 -0.031454802 8.8176426e-39 311 266
-0.0096783992 0.69 -0.031454802 8.6343303e-39 312 266
-0.0084686 0.69 -0.031454802 8.7265245e-39 313 266
-0.0072693196 0.69099998 -0.031500384 8.6343303e-39 314 266
-0.0060577663 0.69099998 -0.031500384 8.6343303e-39 315 266
-0.00486024 0.69300002 -0.031591557 8.8176426e-39 316 266
-0.0036504399 0.69400001 -0.031637147 8.9098368e-39 317 266
-0.0024336267 0.69400001 -0.031637147 8.7268833e-39 318 266
-0.0012168133 0.69400001 -0.031637147 8.7268833e-39 319 266
0 0.69599998 -0.031728316 8.6346904e-39 320 266
0.0012203199 0.69599998 -0.031728316 8.6346904e-39 321 266
0.0024406398 0.69599998 -0.031728316 8.5417773e-39 322 266
0.0036609597 0.69599998 -0.031728316 8.6339716e-39 323 266
0.0048882933 0.69700003 -0.03177391 8.5421361e-39 324 266
0.006119133 0.69800001 -0.031819493 8.6343303e-39 325 266
0.0073639993 0.69999999 -0.031910665 8.5428535e-39 326 266
0.0085913334 0.69999999 -0.031910665 8.6350478e-39 327 266
0.0098186666 0.69999999 -0.031910665 8.6354065e-39 328 266
0.011061779 0.70099998 -0.031956252 8.6354065e-39 329 266
0.012325933 0.70300001 -0.032047424 8.819795e-39 330 266
0.013577812 0.704 -0.032093015 8.819795e-39 331 266
0.014812159 0.704 -0.032093015 8.9119892e-39 332 266
0.016092092 0.70599997 -0.032184184 9.0041834e-39 333 266
0.017354494 0.70700002 -0.032229774 9.0970979e-39 334 266
0.018594101 0.70700002 -0.032229774 9.1892935e-39 335 266
0.019833706 0.70700002 -0.032229774 9.1878544e-39 336 266
0.021103119 0.708 -0.03227536 1.2045911e-38 337 266
-0.05294716 0.71899998 -0.03403746 1.2431624e-38 278 267
-0.051542737 0.71700001 -0.033942781 9.2047765e-39 279 267
-0.0502856 0.71700001 -0.033942781 1.0660461e-38 280 267
-0.048960082 0.71600002 -0.03389544 1.1028885e-38 281 267
-0.047571439 0.71399999 -0.033800758 1.093884e-38 282 267
-0.046254687 0.713 -0.033753417 1.093884e-38 283 267
-0.044436477 0.704 -0.03332736 1.0204872e-38 284 267
-0.043202132 0.704 -0.03332736 1.0112676e-38 285 267
-0.041908171 0.70300001 -0.033280019 9.9250579e-39 286 267
-0.040502001 0.69999999 -0.033137999 9.6484696e-39 287 267
-0.039162453 0.69800001 -0.033043321 9.6473976e-39 288 267
-0.037884273 0.69700003 -0.03299598 1.0015821e-38 289 267
-0.036662199 0.69700003 -0.03299598 1.0017625e-38 290 267
-0.035389278 0.69599998 -0.032948639 1.0478244e-38 291 267
-0.034070771 0.69400001 -0.032853961 1.0296381e-38 292 267
-0.03280662 0.69300002 -0.03280662 1.094175e-38 293 267
-0.031591557 0.69300002 -0.03280662 1.0666957e-38 294 267
-0.030288832 0.69099998 -0.032711938 1.0113785e-38 295 267
-0.029077278 0.69099998 -0.032711938 9.8339567e-39 296 267
-0.027865725 0.69099998 -0.032711938 9.1885873e-39 297 267
-0.026654173 0.69099998 -0.032711938 9.3693828e-39 298 267
-0.025405798 0.69 -0.032664597 9.2771872e-39 299 267
-0.024195999 0.69 -0.032664597 9.0016779e-39 300 267
-0.023019511 0.69099998 -0.032711938 9.0016779e-39 301 267
-0.021807959 0.69099998 -0.032711938 9.0023982e-39 302 267
-0.020596405 0.69099998 -0.032711938 8.9102011e-39 303 267
-0.019384852 0.69099998 -0.032711938 8.9102011e-39 304 267
-0.018146999 0.69 -0.032664597 8.7258113e-39 305 267
-0.0169372 0.69 -0.032664597 8.9101983e-39 306 267
-0.015727401 0.69 -0.032664597 8.5414186e-39 307 267
-0.014517599 0.69 -0.032664597 8.8169251e-39 308 267
-0.013269227 0.68800002 -0.032569919 8.8169251e-39 309 267
-0.012062933 0.68800002 -0.032569919 8.7254483e-39 310 267
-0.010888199 0.69 -0.032664597 8.8176426e-39 311 267
-0.0096783992 0.69 -0.032664597 8.7265245e-39 312 267
-0.0084686 0.69 -0.032664597 8.7265245e-39 313 267
-0.0072693196 0.69099998 -0.032711938 8.6339716e-39 314 267
-0.0060577663 0.69099998 -0.032711938 8.6339716e-39 315 267
-0.00486024 0.69300002 -0.03280662 8.7250896e-39 316 267
-0.0036451798 0.69300002 -0.03280662 8.9098368e-39 317 267
-0.0024336267 0.69400001 -0.032853961 8.634689e-39 318 267
-0.0012168133 0.69400001 -0.032853961 8.634689e-39 319 267
0 0.69400001 -0.032853961 8.4510194e-39 320 267
0.0012203199 0.69599998 -0.032948639 8.3588238e-39 321 267
0.0024406398 0.69599998 -0.032948639 8.5417773e-39 322 267
0.0036609597 0.69599998 -0.032948639 8.5417773e-39 323 267
0.0048882933 0.69700003 -0.03299598 8.3584651e-39 324 267
0.006119133 0.69800001 -0.033043321 8.5428535e-39 325 267
0.0073429602 0.69800001 -0.033043321 8.4517355e-39 326 267
0.0085913334 0.69999999 -0.033137999 8.4517355e-39 327 267
0.0098186666 0.69999999 -0.033137999 8.5442885e-39 328 267
0.011061779 0.70099998 -0.03318534 8.5442885e-39 329 267
0.012325933 0.70300001 -0.033280019 8.819795e-39 330 267
0.013577812 0.704 -0.03332736 8.819795e-39 331 267
0.014812159 0.704 -0.03332736 8.819795e-39 332 267
0.016092092 0.70599997 -0.033422034 9.1882131e-39 333 267
0.017354494 0.70700002 -0.033469379 9.1896481e-39 334 267
0.0186204 0.708 -0.033516716 9.2818423e-39 335 267
0.01986176 0.708 -0.033516716 9.0027485e-39 336 267
0.021103119 0.708 -0.033516716 1.2321772e-38 337 267
0.022344479 0.708 -0.033516716 1.335356e-38 338 267
-0.05294716 0.71899998 -0.035298105 1.2891881e-38 278 268
-0.051542737 0.71700001 -0.035199918 9.3884475e-39 279 268
-0.0502856 0.71700001 -0.035199918 1.0476783e-38 280 268
-0.048960082 0.71600002 -0.035150826 1.0938121e-38 281 268
-0.047571439 0.71399999 -0.035052639 1.0938471e-38 282 268
-0.046254687 0.713 -0.035003547 1.1122502e-38 283 268
-0.044562716 0.70599997 -0.034659892 1.0662973e-38 284 268
-0.043202132 0.704 -0.034561705 1.0294189e-38 285 268
-0.041908171 0.70300001 -0.034512613 9.8325092e-39 286 268
-0.040502001 0.69999999 -0.034365334 9.4640854e-39 287 268
-0.039162453 0.69800001 -0.034267146 9.4644483e-39 288 268
-0.037884273 0.69700003 -0.034218054 9.8332308e-39 289 268
-0.036662199 0.69700003 -0.034218054 9.7417583e-39 290 268
-0.035389278 0.69599998 -0.034168959 9.9265083e-39 291 268
-0.034070771 0.69400001 -0.034070771 9.9261719e-39 292 268
-0.03280662 0.69300002 -0.034021679 1.0018368e-38 293 268
-0.031591557 0.69300002 -0.034021679 1.0201683e-38 294 268
-0.030288832 0.69099998 -0.033923492 9.8329001e-39 295 268
-0.029077278 0.69099998 -0.033923492 9.8321616e-39 296 268
-0.027865725 0.69099998 -0.033923492 9.2789879e-39 297 268
-0.026654173 0.69099998 -0.033923492 9.1860677e-39 298 268
-0.025405798 0.69 -0.0338744 9.0016751e-39 299 268
-0.024195999 0.69 -0.0338744 9.0016751e-39 300 268
-0.023019511 0.69099998 -0.033923492 9.0016751e-39 301 268
-0.021807959 0.69099998 -0.033923492 8.9101983e-39 302 268
-0.020596405 0.69099998 -0.033923492 9.0023954e-39 303 268
-0.019384852 0.69099998 -0.033923492 8.9101983e-39 304 268
-0.018146999 0.69 -0.0338744 8.7261672e-39 305 268
-0.0169372 0.69 -0.0338744 8.8165664e-39 306 268
-0.015727401 0.69 -0.0338744 8.8165664e-39 307 268
-0.014517599 0.69 -0.0338744 8.9080431e-39 308 268
-0.013269227 0.68800002 -0.033776212 9.0002374e-39 309 268
-0.012062933 0.68800002 -0.033776212 8.8176426e-39 310 268
-0.010888199 0.69 -0.0338744 8.7254483e-39 311 268
-0.0096783992 0.69 -0.0338744 8.6343303e-39 312 268
-0.0084686 0.69 -0.0338744 8.6343303e-39 313 268
-0.0072693196 0.69099998 -0.033923492 8.6343303e-39 314 268
-0.0060577663 0.69099998 -0.033923492 8.6343303e-39 315 268
-0.00486024 0.69300002 -0.034021679 8.6339716e-39 316 268
-0.0036451798 0.69300002 -0.034021679 8.7265245e-39 317 268
-0.0024336267 0.69400001 -0.034070771 8.634689e-39 318 268
-0.0012168133 0.69400001 -0.034070771 8.5424948e-39 319 268
0 0.69400001 -0.034070771 8.5417773e-39 320 268
0.0012203199 0.69599998 -0.034168959 8.5417773e-39 321 268
0.0024406398 0.69599998 -0.034168959 8.5421361e-39 322 268
0.0036609597 0.69599998 -0.034168959 8.5421361e-39 323 268
0.0048882933 0.69700003 -0.034218054 8.5428535e-39 324 268
0.006119133 0.69800001 -0.034267146 8.5428535e-39 325 268
0.0073429602 0.69800001 -0.034267146 8.6350478e-39 326 268
0.0085913334 0.69999999 -0.034365334 8.6350478e-39 327 268
0.0098186666 0.69999999 -0.034365334 8.5442885e-39 328 268
0.011061779 0.70099998 -0.034414422 8.5442885e-39 329 268
0.012325933 0.70300001 -0.034512613 8.8194362e-39 330 268
0.013577812 0.704 -0.034561705 8.8194362e-39 331 268
0.014854239 0.70599997 -0.034659892 8.9127066e-39 332 268
0.016092092 0.70599997 -0.034659892 9.0970951e-39 333 268
0.017379038 0.708 -0.034758076 9.1900068e-39 334 268
0.0186204 0.708 -0.034758076 9.0056183e-39 335 268
0.01986176 0.708 -0.034758076 8.9098368e-39 336 268
0.021162732 0.70999998 -0.034856264 1.305826e-38 337 268
0.022439159 0.71100003 -0.034905359 1.4091844e-38 338 268
-0.05294716 0.71899998 -0.036558751 1.3260661e-38 278 269
-0.051542737 0.71700001 -0.036457058 9.7575859e-39 279 269
-0.050215468 0.71600002 -0.036406212 1.0384587e-38 280 269
-0.048823316 0.71399999 -0.036304519 1.0661175e-38 281 269
-0.047571439 0.71399999 -0.036304519 1.0938474e-38 282 269
-0.046254687 0.713 -0.036253672 1.0938474e-38 283 269
-0.045004558 0.713 -0.036253672 1.0478938e-38 284 269
-0.043202132 0.704 -0.035796054 1.0110155e-38 285 269
-0.041908171 0.70300001 -0.035745207 9.7399464e-39 286 269
-0.040502001 0.69999999 -0.035592664 9.5555551e-39 287 269
-0.039162453 0.69800001 -0.035490975 9.4640826e-39 288 269
-0.037884273 0.69700003 -0.035440128 9.6481137e-39 289 269
-0.036662199 0.69700003 -0.035440128 9.6481165e-39 290 269
-0.035440128 0.69700003 -0.035440128 9.7403135e-39 291 269
-0.034168959 0.69599998 -0.035389278 9.8314428e-39 292 269
-0.03280662 0.69300002 -0.035236739 9.8314428e-39 293 269
-0.031591557 0.69300002 -0.035236739 9.9222063e-39 294 269
-0.0303765 0.69300002 -0.035236739 9.9222063e-39 295 269
-0.029077278 0.69099998 -0.035135046 9.737808e-39 296 269
-0.027865725 0.69099998 -0.035135046 9.4615812e-39 297 269
-0.026654173 0.69099998 -0.035135046 9.1860706e-39 298 269
-0.025405798 0.69 -0.035084199 9.0016779e-39 299 269
-0.024195999 0.69 -0.035084199 8.9102011e-39 300 269
-0.023019511 0.69099998 -0.035135046 9.0023982e-39 301 269
-0.021871079 0.69300002 -0.035236739 8.9101983e-39 302 269
-0.020596405 0.69099998 -0.035135046 8.9101983e-39 303 269
-0.019384852 0.69099998 -0.035135046 8.9094795e-39 304 269
-0.018146999 0.69 -0.035084199 8.8172838e-39 305 269
-0.0169372 0.69 -0.035084199 8.816209e-39 306 269
-0.015727401 0.69 -0.035084199 8.816209e-39 307 269
-0.014517599 0.69 -0.035084199 8.8165664e-39 308 269
-0.0133078 0.69 -0.035084199 8.8165664e-39 309 269
-0.012097999 0.69 -0.035084199 8.7254483e-39 310 269
-0.010888199 0.69 -0.035084199 8.7254483e-39 311 269
-0.0096783992 0.69 -0.035084199 8.7254483e-39 312 269
-0.008480873 0.69099998 -0.035135046 8.7254483e-39 313 269
-0.0072693196 0.69099998 -0.035135046 8.7254483e-39 314 269
-0.0060577663 0.69099998 -0.035135046 8.7254483e-39 315 269
-0.00486024 0.69300002 -0.035236739 8.7250896e-39 316 269
-0.0036451798 0.69300002 -0.035236739 8.8176426e-39 317 269
-0.00243012 0.69300002 -0.035236739 8.5428535e-39 318 269
-0.0012168133 0.69400001 -0.035287585 8.5428535e-39 319 269
0 0.69400001 -0.035287585 8.7254483e-39 320 269
0.0012203199 0.69599998 -0.035389278 8.5414186e-39 321 269
0.0024406398 0.69599998 -0.035389278 8.7254483e-39 322 269
0.0036609597 0.69599998 -0.035389278 8.8176426e-39 323 269
0.0048882933 0.69700003 -0.035440128 8.5428535e-39 324 269
0.006119133 0.69800001 -0.035490975 8.6354065e-39 325 269
0.0073429602 0.69800001 -0.035490975 8.4517355e-39 326 269
0.0085913334 0.69999999 -0.035592664 8.4517355e-39 327 269
0.0098186666 0.69999999 -0.035592664 8.6354065e-39 328 269
0.011061779 0.70099998 -0.035643511 8.7276007e-39 329 269
0.012325933 0.70300001 -0.035745207 8.727242e-39 330 269
0.013577812 0.704 -0.035796054 8.8194362e-39 331 269
0.014854239 0.70599997 -0.035897743 8.9127066e-39 332 269
0.016114887 0.70700002 -0.035948593 9.1896481e-39 333 269
0.017379038 0.708 -0.03599944 9.2818423e-39 334 269
0.018672999 0.70999998 -0.036101133 9.0974538e-39 335 269
0.019917866 0.70999998 -0.036101133 9.1860607e-39 336 269
0.021192541 0.71100003 -0.036151983 1.3795825e-38 337 269
0.022439159 0.71100003 -0.036151983 1.4553898e-38 338 269
-0.051542737 0.71700001 -0.037714198 1.0404392e-38 279 270
-0.050215468 0.71600002 -0.037661601 1.0478219e-38 280 270
-0.048823316 0.71399999 -0.037556399 1.0846641e-38 281 270
-0.047571439 0.71399999 -0.037556399 1.0846995e-38 282 270
-0.046254687 0.713 -0.037503798 1.0754799e-38 283 270
-0.045004558 0.713 -0.037503798 1.0386384e-38 284 270
-0.043202132 0.704 -0.037030395 1.0110155e-38 285 270
-0.041908171 0.70300001 -0.036977798 9.8324965e-39 286 270
-0.040502001 0.69999999 -0.036819998 9.6477494e-39 287 270
-0.039162453 0.69800001 -0.0367148 9.4644385e-39 288 270
-0.037884273 0.69700003 -0.036662199 9.3718841e-39 289 270
-0.036662199 0.69700003 -0.036662199 9.5551992e-39 290 270
-0.035440128 0.69700003 -0.036662199 9.5551992e-39 291 270
-0.034168959 0.69599998 -0.036609598 9.7381611e-39 292 270
-0.032853961 0.69400001 -0.036504399 9.7381611e-39 293 270
-0.031591557 0.69300002 -0.036451802 9.5541328e-39 294 270
-0.0303765 0.69300002 -0.036451802 9.5541328e-39 295 270
-0.029077278 0.69099998 -0.036346599 9.4626532e-39 296 270
-0.027865725 0.69099998 -0.036346599 9.1860677e-39 297 270
-0.026654173 0.69099998 -0.036346599 9.0938721e-39 298 270
-0.025405798 0.69 -0.036293998 9.0938721e-39 299 270
-0.024195999 0.69 -0.036293998 9.0023954e-39 300 270
-0.023019511 0.69099998 -0.036346599 9.0023954e-39 301 270
-0.021871079 0.69300002 -0.036451802 8.7265245e-39 302 270
-0.020596405 0.69099998 -0.036346599 8.7265245e-39 303 270
-0.019384852 0.69099998 -0.036346599 8.8176426e-39 304 270
-0.018146999 0.69 -0.036293998 8.7250896e-39 305 270
-0.0169372 0.69 -0.036293998 8.7250896e-39 306 270
-0.015727401 0.69 -0.036293998 8.7250896e-39 307 270
-0.014517599 0.69 -0.036293998 8.8169251e-39 308 270
-0.0133078 0.69 -0.036293998 8.8169251e-39 309 270
-0.012097999 0.69 -0.036293998 8.7254483e-39 310 270
-0.010888199 0.69 -0.036293998 8.7254483e-39 311 270
-0.0096783992 0.69 -0.036293998 8.7254483e-39 312 270
-0.008480873 0.69099998 -0.036346599 8.7254483e-39 313 270
-0.0072693196 0.69099998 -0.036346599 8.5414186e-39 314 270
-0.0060577663 0.69099998 -0.036346599 8.7254483e-39 315 270
-0.00486024 0.69300002 -0.036451802 8.7254483e-39 316 270
-0.0036451798 0.69300002 -0.036451802 8.7254483e-39 317 270
-0.00243012 0.69300002 -0.036451802 8.5421361e-39 318 270
-0.0012168133 0.69400001 -0.036504399 8.5421361e-39 319 270
0 0.69400001 -0.036504399 8.7258071e-39 320 270
0.0012203199 0.69599998 -0.036609598 8.7258071e-39 321 270
0.0024406398 0.69599998 -0.036609598 8.7258071e-39 322 270
0.0036609597 0.69599998 -0.036609598 8.8180013e-39 323 270
0.0048953067 0.69800001 -0.0367148 8.7268833e-39 324 270
0.006119133 0.69800001 -0.0367148 8.634689e-39 325 270
0.0073429602 0.69800001 -0.0367148 8.6354065e-39 326 270
0.0085913334 0.69999999 -0.036819998 8.6354065e-39 327 270
0.0098186666 0.69999999 -0.036819998 8.6354065e-39 328 270
0.011061779 0.70099998 -0.036872596 8.7276007e-39 329 270
0.012343466 0.704 -0.037030395 8.819795e-39 330 270
0.013616386 0.70599997 -0.037135597 8.9119892e-39 331 270
0.01487528 0.70700002 -0.037188202 9.1885719e-39 332 270
0.016114887 0.70700002 -0.037188202 9.3729603e-39 333 270
0.017379038 0.708 -0.0372408 9.282201e-39 334 270
0.018672999 0.70999998 -0.037345998 9.0978126e-39 335 270
0.019917866 0.70999998 -0.037345998 9.9261257e-39 336 270
0.021192541 0.71100003 -0.037398599 1.4628094e-38 337 270
0.022439159 0.71100003 -0.037398599 1.4556052e-38 338 270
-0.05168651 0.71899998 -0.039080046 1.1419618e-38 279 271
-0.050215468 0.71600002 -0.038916986 1.0478216e-38 280 271
-0.048960082 0.71600002 -0.038916986 1.0754443e-38 281 271
-0.047571439 0.71399999 -0.038808275 1.0846992e-38 282 271
-0.046319555 0.71399999 -0.038808275 1.0846992e-38 283 271
-0.045004558 0.713 -0.038753927 1.0571128e-38 284 271
-0.043570329 0.70999998 -0.038590867 1.0294544e-38 285 271
-0.041908171 0.70300001 -0.038210396 1.0200556e-38 286 271
-0.040559858 0.70099998 -0.038101684 9.9239733e-39 287 271
-0.039162453 0.69800001 -0.037938625 9.9236146e-39 288 271
-0.037938625 0.69800001 -0.037938625 9.8314203e-39 289 271
-0.036662199 0.69700003 -0.037884273 9.7388674e-39 290 271
-0.035440128 0.69700003 -0.037884273 9.5548377e-39 291 271
-0.034168959 0.69599998 -0.037829921 9.4622847e-39 292 271
-0.032853961 0.69400001 -0.037721213 9.4622847e-39 293 271
-0.031637147 0.69400001 -0.037721213 9.1871425e-39 294 271
-0.0303765 0.69300002 -0.037666857 9.0949469e-39 295 271
-0.029161438 0.69300002 -0.037666857 9.1871425e-39 296 271
-0.027865725 0.69099998 -0.03755815 9.0949469e-39 297 271
-0.026654173 0.69099998 -0.03755815 9.0027485e-39 298 271
-0.025442619 0.69099998 -0.03755815 9.0027485e-39 299 271
-0.024231065 0.69099998 -0.03755815 9.0027485e-39 300 271
-0.023019511 0.69099998 -0.03755815 8.9105543e-39 301 271
-0.021871079 0.69300002 -0.037666857 8.7265245e-39 302 271
-0.020656019 0.69300002 -0.037666857 8.7265245e-39 303 271
-0.019384852 0.69099998 -0.03755815 8.634689e-39 304 271
-0.0181733 0.69099998 -0.03755815 8.5421361e-39 305 271
-0.0169372 0.69 -0.037503798 8.7247309e-39 306 271
-0.015727401 0.69 -0.037503798 8.7247309e-39 307 271
-0.014538639 0.69099998 -0.03755815 8.7247309e-39 308 271
-0.013327086 0.69099998 -0.03755815 8.8169251e-39 309 271
-0.012115533 0.69099998 -0.03755815 8.7254483e-39 310 271
-0.01090398 0.69099998 -0.03755815 8.7254483e-39 311 271
-0.0096924258 0.69099998 -0.03755815 8.7258071e-39 312 271
-0.008480873 0.69099998 -0.03755815 8.7258071e-39 313 271
-0.0072693196 0.69099998 -0.03755815 8.7258071e-39 314 271
-0.0060753003 0.69300002 -0.037666857 8.5417773e-39 315 271
-0.00486024 0.69300002 -0.037666857 8.5414186e-39 316 271
-0.0036451798 0.69300002 -0.037666857 8.7258071e-39 317 271
-0.0024336267 0.69400001 -0.037721213 8.7258071e-39 318 271
-0.0012168133 0.69400001 -0.037721213 8.7258071e-39 319 271
0 0.69599998 -0.037829921 8.7258071e-39 320 271
0.0012203199 0.69599998 -0.037829921 8.7258071e-39 321 271
0.0024441467 0.69700003 -0.037884273 8.7258071e-39 322 271
0.00366622 0.69700003 -0.037884273 8.81836e-39 323 271
0.0048953067 0.69800001 -0.037938625 8.634689e-39 324 271
0.006119133 0.69800001 -0.037938625 8.727242e-39 325 271
0.0073639993 0.69999999 -0.038047329 8.7279595e-39 326 271
0.0085913334 0.69999999 -0.038047329 8.6354065e-39 327 271
0.0098326923 0.70099998 -0.038101684 8.5442885e-39 328 271
0.01109334 0.70300001 -0.038210396 8.6364827e-39 329 271
0.012343466 0.704 -0.038264744 8.819795e-39 330 271
0.013616386 0.70599997 -0.038373452 8.9119892e-39 331 271
0.01487528 0.70700002 -0.038427804 9.1885719e-39 332 271
0.016114887 0.70700002 -0.038427804 9.3729603e-39 333 271
0.017379038 0.708 -0.038482159 9.2829185e-39 334 271
0.018672999 0.70999998 -0.038590867 9.4676657e-39 335 271
0.01994592 0.71100003 -0.038645219 1.1036422e-38 336 271
0.021192541 0.71100003 -0.038645219 1.5093389e-38 337 271
-0.051470853 0.71600002 -0.040172372 1.2435212e-38 279 272
-0.050215468 0.71600002 -0.040172372 1.0571134e-38 280 272
-0.048960082 0.71600002 -0.040172372 1.0663329e-38 281 272
-0.047571439 0.71399999 -0.040060159 1.0939912e-38 282 272
-0.046319555 0.71399999 -0.040060159 1.0663326e-38 283 272
-0.045004558 0.713 -0.040004052 1.0571499e-38 284 272
-0.043570329 0.70999998 -0.039835732 1.0295273e-38 285 272
