# .PCD v.7 - Point Cloud Data file format
FIELDS x y z rgb imX imY
SIZE 4 4 4 4 4 4
TYPE F F F F F F
COUNT 1 1 1 1 1 1
WIDTH 828
HEIGHT 1
VIEWPOINT 0 0 0 1 0 0 0
POINTS 828
DATA ascii
0.027387066 0.70999998 -0.023652466 1.3906714e-38 342 259
-0.050005067 0.713 -0.025002534 1.4547786e-38 280 260
-0.048413038 0.708 -0.024827199 1.2335092e-38 281 260
-0.047171678 0.708 -0.024827199 1.3798667e-38 282 260
-0.046060063 0.70999998 -0.024897331 1.3798667e-38 283 260
-0.044688959 0.708 -0.024827199 1.3983033e-38 284 260
-0.043447599 0.708 -0.024827199 1.3983033e-38 285 260
-0.042146627 0.70700002 -0.024792133 1.4078812e-38 286 260
-0.040849157 0.70599997 -0.024757065 1.42632e-38 287 260
-0.039499093 0.704 -0.024686933 1.426607e-38 288 260
-0.038210396 0.70300001 -0.024651866 1.4358623e-38 289 260
-0.036872596 0.70099998 -0.024581732 1.4726324e-38 290 260
-0.035643511 0.70099998 -0.024581732 1.5095104e-38 291 260
-0.034365334 0.69999999 -0.024546666 1.5002928e-38 292 260
-0.033043321 0.69800001 -0.024476532 1.5463906e-38 293 260
-0.031819493 0.69800001 -0.024476532 1.5372454e-38 294 260
-0.030595668 0.69800001 -0.024476532 1.5925628e-38 295 260
-0.02932976 0.69700003 -0.024441468 1.5836336e-38 296 260
-0.028107686 0.69700003 -0.024441468 1.638951e-38 297 260
-0.026847038 0.69599998 -0.0244064 1.6023973e-38 298 260
-0.025553079 0.69400001 -0.024336265 1.5931777e-38 299 260
-0.024336265 0.69400001 -0.024336265 1.6389162e-38 300 260
-0.023119451 0.69400001 -0.024336265 1.5559043e-38 301 260
-0.021902639 0.69400001 -0.024336265 1.5002257e-38 302 260
-0.020685827 0.69400001 -0.024336265 1.3711518e-38 303 260
-0.019469013 0.69400001 -0.024336265 1.4168148e-38 304 260
-0.0182522 0.69400001 -0.024336265 1.3522778e-38 305 260
-0.017035386 0.69400001 -0.024336265 1.3889401e-38 306 260
-0.015818574 0.69400001 -0.024336265 1.3612819e-38 307 260
-0.01460176 0.69400001 -0.024336265 1.3611025e-38 308 260
-0.013384946 0.69400001 -0.024336265 1.3426637e-38 309 260
-0.012168133 0.69400001 -0.024336265 1.3242966e-38 310 260
-0.01095132 0.69400001 -0.024336265 1.3242966e-38 311 260
-0.0097345067 0.69400001 -0.024336265 1.3243683e-38 312 260
-0.0085176928 0.69400001 -0.024336265 1.3243683e-38 313 260
-0.0073008798 0.69400001 -0.024336265 1.3061088e-38 314 260
-0.0060840664 0.69400001 -0.024336265 1.3061088e-38 315 260
-0.0048672534 0.69400001 -0.024336265 1.2877776e-38 316 260
-0.0036504399 0.69400001 -0.024336265 1.2877776e-38 317 260
-0.0024336267 0.69400001 -0.024336265 1.2877058e-38 318 260
-0.0012168133 0.69400001 -0.024336265 1.2784864e-38 319 260
0 0.69599998 -0.0244064 1.3060371e-38 320 260
0.0012220733 0.69700003 -0.024441468 1.3152565e-38 321 260
0.0024441467 0.69700003 -0.024441468 1.2878135e-38 322 260
0.00366622 0.69700003 -0.024441468 1.2970329e-38 323 260
0.0048953067 0.69800001 -0.024476532 1.2696257e-38 324 260
0.006119133 0.69800001 -0.024476532 1.2788452e-38 325 260
0.0073639993 0.69999999 -0.024546666 1.2789887e-38 326 260
0.0085913334 0.69999999 -0.024546666 1.2697334e-38 327 260
0.0098186666 0.69999999 -0.024546666 1.2787734e-38 328 260
0.011061779 0.70099998 -0.024581732 1.2602987e-38 329 260
0.012325933 0.70300001 -0.024651866 1.2417164e-38 330 260
0.013558527 0.70300001 -0.024651866 1.2048745e-38 331 260
0.014812159 0.704 -0.024686933 1.2139146e-38 332 260
0.016046507 0.704 -0.024686933 1.1678175e-38 333 260
0.017280852 0.704 -0.024686933 1.222847e-38 334 260
0.018567799 0.70599997 -0.024757065 1.2321023e-38 335 260
0.019805651 0.70599997 -0.024757065 1.2046952e-38 336 260
0.021073313 0.70700002 -0.024792133 1.223134e-38 337 260
0.022344479 0.708 -0.024827199 1.2141301e-38 338 260
0.023652466 0.70999998 -0.024897331 1.2418248e-38 339 260
0.024897331 0.70999998 -0.024897331 1.2055942e-38 340 260
0.026142199 0.70999998 -0.024897331 1.2978259e-38 341 260
0.027387066 0.70999998 -0.024897331 1.4367695e-38 342 260
-0.050005067 0.713 -0.026252659 1.4734695e-38 280 261
-0.048413038 0.708 -0.026068559 1.233761e-38 281 261
-0.047171678 0.708 -0.026068559 1.3982697e-38 282 261
-0.046060063 0.70999998 -0.026142199 1.3982697e-38 283 261
-0.044688959 0.708 -0.026068559 1.3799721e-38 284 261
-0.043447599 0.708 -0.026068559 1.4075949e-38 285 261
-0.042146627 0.70700002 -0.02603174 1.3986259e-38 286 261
-0.040849157 0.70599997 -0.025994917 1.4447233e-38 287 261
-0.039499093 0.704 -0.02592128 1.426607e-38 288 261
-0.038210396 0.70300001 -0.025884461 1.4358265e-38 289 261
-0.036872596 0.70099998 -0.025810819 1.4359351e-38 290 261
-0.035592664 0.69999999 -0.025773998 1.4543742e-38 291 261
-0.034267146 0.69800001 -0.025700359 1.4819628e-38 292 261
-0.033043321 0.69800001 -0.025700359 1.5188411e-38 293 261
-0.031819493 0.69800001 -0.025700359 1.5465739e-38 294 261
-0.030551834 0.69700003 -0.025663542 1.5927077e-38 295 261
-0.02932976 0.69700003 -0.025663542 1.5837785e-38 296 261
-0.028067358 0.69599998 -0.025626717 1.675974e-38 297 261
-0.026847038 0.69599998 -0.025626717 1.6210529e-38 298 261
-0.025553079 0.69400001 -0.025553079 1.6303085e-38 299 261
-0.024336265 0.69400001 -0.025553079 1.6392762e-38 300 261
-0.023119451 0.69400001 -0.025553079 1.4548489e-38 301 261
-0.021902639 0.69400001 -0.025553079 1.4726031e-38 302 261
-0.020685827 0.69400001 -0.025553079 1.3435294e-38 303 261
-0.019469013 0.69400001 -0.025553079 1.4258543e-38 304 261
-0.0182522 0.69400001 -0.025553079 1.3797925e-38 305 261
-0.017035386 0.69400001 -0.025553079 1.379649e-38 306 261
-0.015818574 0.69400001 -0.025553079 1.3704295e-38 307 261
-0.01460176 0.69400001 -0.025553079 1.3518831e-38 308 261
-0.01336566 0.69300002 -0.02551626 1.3426637e-38 309 261
-0.012150601 0.69300002 -0.02551626 1.3059295e-38 310 261
-0.010935539 0.69300002 -0.02551626 1.3059295e-38 311 261
-0.0097204801 0.69300002 -0.02551626 1.3060012e-38 312 261
-0.0085054198 0.69300002 -0.02551626 1.3152565e-38 313 261
-0.0072903596 0.69300002 -0.02551626 1.2877776e-38 314 261
-0.0060840664 0.69400001 -0.025553079 1.2877776e-38 315 261
-0.0048672534 0.69400001 -0.025553079 1.2877776e-38 316 261
-0.0036504399 0.69400001 -0.025553079 1.2785582e-38 317 261
-0.0024336267 0.69400001 -0.025553079 1.2784864e-38 318 261
-0.0012168133 0.69400001 -0.025553079 1.2877058e-38 319 261
0 0.69599998 -0.025626717 1.2785582e-38 320 261
0.0012220733 0.69700003 -0.025663542 1.2785582e-38 321 261
0.0024441467 0.69700003 -0.025663542 1.2694464e-38 322 261
0.00366622 0.69700003 -0.025663542 1.2878493e-38 323 261
0.0048953067 0.69800001 -0.025700359 1.2787734e-38 324 261
0.006119133 0.69800001 -0.025700359 1.2972123e-38 325 261
0.0073639993 0.69999999 -0.025773998 1.2881005e-38 326 261
0.0085913334 0.69999999 -0.025773998 1.2881005e-38 327 261
0.0098186666 0.69999999 -0.025773998 1.2696257e-38 328 261
0.011061779 0.70099998 -0.025810819 1.2419675e-38 329 261
0.012325933 0.70300001 -0.025884461 1.2509716e-38 330 261
0.013558527 0.70300001 -0.025884461 1.2325328e-38 331 261
0.014791119 0.70300001 -0.025884461 1.2229905e-38 332 261
0.016046507 0.704 -0.02592128 1.1953681e-38 333 261
0.017280852 0.704 -0.02592128 1.2044082e-38 334 261
0.018567799 0.70599997 -0.025994917 1.2136276e-38 335 261
0.019805651 0.70599997 -0.025994917 1.195404e-38 336 261
0.021073313 0.70700002 -0.02603174 1.2230986e-38 337 261
0.022344479 0.708 -0.026068559 1.1957643e-38 338 261
0.023652466 0.70999998 -0.026142199 1.2510456e-38 339 261
0.024897331 0.70999998 -0.026142199 1.2147788e-38 340 261
0.026068559 0.708 -0.026068559 1.3715474e-38 341 261
0.027309919 0.708 -0.026068559 1.4645005e-38 342 261
-0.049864799 0.71100003 -0.027425639 1.5013084e-38 280 262
-0.048618179 0.71100003 -0.027425639 1.2615997e-38 281 262
-0.047304932 0.70999998 -0.027387066 1.3706118e-38 282 262
-0.046060063 0.70999998 -0.027387066 1.3798314e-38 283 262
-0.044815198 0.70999998 -0.027387066 1.398268e-38 284 262
-0.043447599 0.708 -0.027309919 1.4074877e-38 285 262
-0.042206239 0.708 -0.027309919 1.4078453e-38 286 262
-0.040907022 0.70700002 -0.027271347 1.42632e-38 287 262
-0.039499093 0.704 -0.027155625 1.4173876e-38 288 262
-0.038101684 0.70099998 -0.027039904 1.4173876e-38 289 262
-0.036872596 0.70099998 -0.027039904 1.4357911e-38 290 262
-0.035592664 0.69999999 -0.027001332 1.4726694e-38 291 262
-0.034267146 0.69800001 -0.026924185 1.4817836e-38 292 262
-0.033043321 0.69800001 -0.026924185 1.5463205e-38 293 262
-0.03177391 0.69700003 -0.026885614 1.5188803e-38 294 262
-0.030551834 0.69700003 -0.026885614 1.5834172e-38 295 262
-0.029287677 0.69599998 -0.026847038 1.5836002e-38 296 262
-0.028067358 0.69599998 -0.026847038 1.6850513e-38 297 262
-0.026769891 0.69400001 -0.026769891 1.6487141e-38 298 262
-0.02551626 0.69300002 -0.02673132 1.6671534e-38 299 262
-0.024301201 0.69300002 -0.02673132 1.6025785e-38 300 262
-0.02308614 0.69300002 -0.02673132 1.3444307e-38 301 262
-0.021871079 0.69300002 -0.02673132 1.4540187e-38 302 262
-0.020685827 0.69400001 -0.026769891 1.3434198e-38 303 262
-0.019469013 0.69400001 -0.026769891 1.4166701e-38 304 262
-0.0182522 0.69400001 -0.026769891 1.370573e-38 305 262
-0.017035386 0.69400001 -0.026769891 1.379649e-38 306 262
-0.015818574 0.69400001 -0.026769891 1.3612101e-38 307 262
-0.01460176 0.69400001 -0.026769891 1.3335518e-38 308 262
-0.01336566 0.69300002 -0.02673132 1.3242966e-38 309 262
-0.012150601 0.69300002 -0.02673132 1.3150413e-38 310 262
-0.010935539 0.69300002 -0.02673132 1.3150413e-38 311 262
-0.0097204801 0.69300002 -0.02673132 1.29671e-38 312 262
-0.0085054198 0.69300002 -0.02673132 1.3059295e-38 313 262
-0.0072903596 0.69300002 -0.02673132 1.2877058e-38 314 262
-0.0060840664 0.69400001 -0.026769891 1.2877058e-38 315 262
-0.0048672534 0.69400001 -0.026769891 1.2785582e-38 316 262
-0.0036504399 0.69400001 -0.026769891 1.2693387e-38 317 262
-0.0024336267 0.69400001 -0.026769891 1.2784864e-38 318 262
-0.0012168133 0.69400001 -0.026769891 1.269267e-38 319 262
0 0.69599998 -0.026847038 1.2784864e-38 320 262
0.0012203199 0.69599998 -0.026847038 1.2877058e-38 321 262
0.0024441467 0.69700003 -0.026885614 1.2694464e-38 322 262
0.00366622 0.69700003 -0.026885614 1.2694464e-38 323 262
0.0048953067 0.69800001 -0.026924185 1.2878852e-38 324 262
0.006119133 0.69800001 -0.026924185 1.3063241e-38 325 262
0.0073639993 0.69999999 -0.027001332 1.2880646e-38 326 262
0.0085913334 0.69999999 -0.027001332 1.2880646e-38 327 262
0.0098186666 0.69999999 -0.027001332 1.2605139e-38 328 262
0.011061779 0.70099998 -0.027039904 1.2420751e-38 329 262
0.012325933 0.70300001 -0.027117053 1.2326404e-38 330 262
0.013558527 0.70300001 -0.027117053 1.2049822e-38 331 262
0.014791119 0.70300001 -0.027117053 1.2137711e-38 332 262
0.016046507 0.704 -0.027155625 1.1768934e-38 333 262
0.017280852 0.704 -0.027155625 1.195117e-38 334 262
0.018567799 0.70599997 -0.027232772 1.2043364e-38 335 262
0.019805651 0.70599997 -0.027232772 1.2136994e-38 336 262
0.021073313 0.70700002 -0.027271347 1.2413576e-38 337 262
0.022407599 0.70999998 -0.027387066 1.2141308e-38 338 262
0.023652466 0.70999998 -0.027387066 1.2510091e-38 339 262
0.024897331 0.70999998 -0.027387066 1.2515126e-38 340 262
0.02603174 0.70700002 -0.027271347 1.4635985e-38 341 262
0.027271347 0.70700002 -0.027271347 1.5014507e-38 342 262
0.028510952 0.70700002 -0.027271347 1.6950615e-38 343 262
-0.048549797 0.70999998 -0.028631933 1.2985502e-38 281 263
-0.047304932 0.70999998 -0.028631933 1.3706483e-38 282 263
-0.046060063 0.70999998 -0.028631933 1.3798678e-38 283 263
-0.044815198 0.70999998 -0.028631933 1.4074877e-38 284 263
-0.043447599 0.708 -0.02855128 1.4167073e-38 285 263
-0.042206239 0.708 -0.02855128 1.3802947e-38 286 263
-0.040907022 0.70700002 -0.028510952 1.4171365e-38 287 263
-0.039499093 0.704 -0.028389972 1.3989488e-38 288 263
-0.038101684 0.70099998 -0.028268991 1.4081682e-38 289 263
-0.036872596 0.70099998 -0.028268991 1.4265716e-38 290 263
-0.035592664 0.69999999 -0.028228667 1.4541943e-38 291 263
-0.034267146 0.69800001 -0.028148014 1.4725284e-38 292 263
-0.033043321 0.69800001 -0.028148014 1.5186262e-38 293 263
-0.03177391 0.69700003 -0.028107686 1.5095534e-38 294 263
-0.030507999 0.69599998 -0.028067358 1.5648708e-38 295 263
-0.029287677 0.69599998 -0.028067358 1.5558695e-38 296 263
-0.027986705 0.69400001 -0.027986705 1.6204065e-38 297 263
-0.026769891 0.69400001 -0.027986705 1.6299507e-38 298 263
-0.02551626 0.69300002 -0.027946379 1.6575734e-38 299 263
-0.024301201 0.69300002 -0.027946379 1.5287132e-38 300 263
-0.02308614 0.69300002 -0.027946379 1.298224e-38 301 263
-0.021871079 0.69300002 -0.027946379 1.4079199e-38 302 263
-0.020685827 0.69400001 -0.027986705 1.3433829e-38 303 263
-0.019469013 0.69400001 -0.027986705 1.407379e-38 304 263
-0.0182522 0.69400001 -0.027986705 1.3705372e-38 305 263
-0.017035386 0.69400001 -0.027986705 1.3795772e-38 306 263
-0.015818574 0.69400001 -0.027986705 1.3611384e-38 307 263
-0.01460176 0.69400001 -0.027986705 1.3426637e-38 308 263
-0.01336566 0.69300002 -0.027946379 1.3334084e-38 309 263
-0.012150601 0.69300002 -0.027946379 1.3058218e-38 310 263
-0.010935539 0.69300002 -0.027946379 1.2966024e-38 311 263
-0.0097204801 0.69300002 -0.027946379 1.2875624e-38 312 263
-0.0085054198 0.69300002 -0.027946379 1.2875624e-38 313 263
-0.0072903596 0.69300002 -0.027946379 1.2784864e-38 314 263
-0.0060840664 0.69400001 -0.027986705 1.2877058e-38 315 263
-0.0048672534 0.69400001 -0.027986705 1.2785582e-38 316 263
-0.0036504399 0.69400001 -0.027986705 1.2693387e-38 317 263
-0.0024336267 0.69400001 -0.027986705 1.269267e-38 318 263
-0.0012168133 0.69400001 -0.027986705 1.2600476e-38 319 263
0 0.69599998 -0.028067358 1.269267e-38 320 263
0.0012203199 0.69599998 -0.028067358 1.269267e-38 321 263
0.0024441467 0.69700003 -0.028107686 1.2693387e-38 322 263
0.00366622 0.69700003 -0.028107686 1.2785582e-38 323 263
0.0048953067 0.69800001 -0.028148014 1.2878135e-38 324 263
0.006119133 0.69800001 -0.028148014 1.2970329e-38 325 263
0.0073639993 0.69999999 -0.028228667 1.2788452e-38 326 263
0.0085913334 0.69999999 -0.028228667 1.2788452e-38 327 263
0.0098186666 0.69999999 -0.028228667 1.2696257e-38 328 263
0.011061779 0.70099998 -0.028268991 1.2512228e-38 329 263
0.012325933 0.70300001 -0.028349647 1.2234927e-38 330 263
0.013558527 0.70300001 -0.028349647 1.1866509e-38 331 263
0.014791119 0.70300001 -0.028349647 1.1954399e-38 332 263
0.016046507 0.704 -0.028389972 1.1493428e-38 333 263
0.017280852 0.704 -0.028389972 1.2042288e-38 334 263
0.018567799 0.70599997 -0.028470624 1.2227035e-38 335 263
0.019805651 0.70599997 -0.028470624 1.1952964e-38 336 263
0.021073313 0.70700002 -0.028510952 1.2413935e-38 337 263
0.022407599 0.70999998 -0.028631933 1.2050186e-38 338 263
0.023652466 0.70999998 -0.028631933 1.2418967e-38 339 263
0.024827199 0.708 -0.02855128 1.2698794e-38 340 263
0.02603174 0.70700002 -0.028510952 1.5649414e-38 341 263
0.027271347 0.70700002 -0.028510952 1.5199977e-38 342 263
0.028510952 0.70700002 -0.028510952 1.6675107e-38 343 263
-0.048549797 0.70999998 -0.029876797 1.3079144e-38 281 264
-0.047304932 0.70999998 -0.029876797 1.3615013e-38 282 264
-0.046060063 0.70999998 -0.029876797 1.3799403e-38 283 264
-0.044815198 0.70999998 -0.029876797 1.4167076e-38 284 264
-0.043447599 0.708 -0.02979264 1.4351107e-38 285 264
-0.042206239 0.708 -0.02979264 1.3986259e-38 286 264
-0.040907022 0.70700002 -0.029750559 1.4262842e-38 287 264
-0.039611302 0.70599997 -0.029708479 1.3989488e-38 288 264
-0.038101684 0.70099998 -0.029498078 1.4081682e-38 289 264
-0.036872596 0.70099998 -0.029498078 1.4173517e-38 290 264
-0.035592664 0.69999999 -0.029455997 1.4265713e-38 291 264
-0.034267146 0.69800001 -0.029371841 1.4539817e-38 292 264
-0.03299598 0.69700003 -0.02932976 1.5092991e-38 293 264
-0.03177391 0.69700003 -0.02932976 1.5002262e-38 294 264
-0.030507999 0.69599998 -0.029287677 1.5371045e-38 295 264
-0.029287677 0.69599998 -0.029287677 1.5188818e-38 296 264
-0.027986705 0.69400001 -0.029203519 1.5465764e-38 297 264
-0.026769891 0.69400001 -0.029203519 1.5651597e-38 298 264
-0.02551626 0.69300002 -0.029161438 1.5651597e-38 299 264
-0.024301201 0.69300002 -0.029161438 1.5005856e-38 300 264
-0.02308614 0.69300002 -0.029161438 1.3438529e-38 301 264
-0.021871079 0.69300002 -0.029161438 1.4170313e-38 302 264
-0.020685827 0.69400001 -0.029203519 1.3524943e-38 303 264
-0.019469013 0.69400001 -0.029203519 1.3981596e-38 304 264
-0.0182522 0.69400001 -0.029203519 1.3705372e-38 305 264
-0.017035386 0.69400001 -0.029203519 1.3520983e-38 306 264
-0.015818574 0.69400001 -0.029203519 1.3336236e-38 307 264
-0.01460176 0.69400001 -0.029203519 1.3426278e-38 308 264
-0.013384946 0.69400001 -0.029203519 1.3149695e-38 309 264
-0.012168133 0.69400001 -0.029203519 1.2965665e-38 310 264
-0.01095132 0.69400001 -0.029203519 1.305786e-38 311 264
-0.0097345067 0.69400001 -0.029203519 1.2783429e-38 312 264
-0.0085054198 0.69300002 -0.029161438 1.2875624e-38 313 264
-0.0072903596 0.69300002 -0.029161438 1.269267e-38 314 264
-0.0060840664 0.69400001 -0.029203519 1.2784864e-38 315 264
-0.0048672534 0.69400001 -0.029203519 1.2509716e-38 316 264
-0.0036504399 0.69400001 -0.029203519 1.2417522e-38 317 264
-0.0024336267 0.69400001 -0.029203519 1.2783429e-38 318 264
-0.0012168133 0.69400001 -0.029203519 1.25994e-38 319 264
0 0.69599998 -0.029287677 1.2507923e-38 320 264
0.0012203199 0.69599998 -0.029287677 1.2600117e-38 321 264
0.0024441467 0.69700003 -0.02932976 1.2416805e-38 322 264
0.00366622 0.69700003 -0.02932976 1.2693029e-38 323 264
0.0048953067 0.69800001 -0.029371841 1.2694464e-38 324 264
0.006119133 0.69800001 -0.029371841 1.2971046e-38 325 264
0.0073639993 0.69999999 -0.029455997 1.2696257e-38 326 264
0.0085913334 0.69999999 -0.029455997 1.2788452e-38 327 264
0.0098186666 0.69999999 -0.029455997 1.2512228e-38 328 264
0.011061779 0.70099998 -0.029498078 1.2420033e-38 329 264
0.012325933 0.70300001 -0.029582238 1.2143809e-38 330 264
0.013558527 0.70300001 -0.029582238 1.1867227e-38 331 264
0.014791119 0.70300001 -0.029582238 1.2046952e-38 332 264
0.016046507 0.704 -0.029624319 1.177001e-38 333 264
0.017280852 0.704 -0.029624319 1.1952246e-38 334 264
0.018567799 0.70599997 -0.029708479 1.2044441e-38 335 264
0.019805651 0.70599997 -0.029708479 1.1953681e-38 336 264
0.021073313 0.70700002 -0.029750559 1.2414652e-38 337 264
0.022407599 0.70999998 -0.029876797 1.205091e-38 338 264
0.023652466 0.70999998 -0.029876797 1.2511528e-38 339 264
0.024827199 0.708 -0.02979264 1.2607691e-38 340 264
0.02603174 0.70700002 -0.029750559 1.6111484e-38 341 264
0.027271347 0.70700002 -0.029750559 1.5660243e-38 342 264
-0.047304932 0.70999998 -0.031121666 1.3615738e-38 282 265
-0.046060063 0.70999998 -0.031121666 1.398416e-38 283 265
-0.044815198 0.70999998 -0.031121666 1.4167441e-38 284 265
-0.043570329 0.70999998 -0.031121666 1.4259637e-38 285 265
-0.042325463 0.70999998 -0.031121666 1.3895504e-38 286 265
-0.040964879 0.708 -0.031034 1.4264287e-38 287 265
-0.039611302 0.70599997 -0.030946331 1.4082399e-38 288 265
-0.038264744 0.704 -0.030858666 1.4174594e-38 289 265
-0.036872596 0.70099998 -0.030727165 1.4081323e-38 290 265
-0.035592664 0.69999999 -0.030683333 1.4081323e-38 291 265
-0.034267146 0.69800001 -0.030595668 1.4355413e-38 292 265
-0.03299598 0.69700003 -0.030551834 1.4447609e-38 293 265
-0.03177391 0.69700003 -0.030551834 1.4722782e-38 294 265
-0.030507999 0.69599998 -0.030507999 1.499937e-38 295 265
-0.029203519 0.69400001 -0.030420333 1.4816423e-38 296 265
-0.027986705 0.69400001 -0.030420333 1.4908978e-38 297 265
-0.026769891 0.69400001 -0.030420333 1.4909694e-38 298 265
-0.025553079 0.69400001 -0.030420333 1.4817498e-38 299 265
-0.024301201 0.69300002 -0.0303765 1.4632019e-38 300 265
-0.02308614 0.69300002 -0.0303765 1.3894453e-38 301 265
-0.021871079 0.69300002 -0.0303765 1.4352542e-38 302 265
-0.020685827 0.69400001 -0.030420333 1.3799368e-38 303 265
-0.019469013 0.69400001 -0.030420333 1.3981596e-38 304 265
-0.0182522 0.69400001 -0.030420333 1.3705013e-38 305 265
-0.017035386 0.69400001 -0.030420333 1.3612819e-38 306 265
-0.015795778 0.69300002 -0.0303765 1.3243683e-38 307 265
-0.014580719 0.69300002 -0.0303765 1.3426278e-38 308 265
-0.013384946 0.69400001 -0.030420333 1.3334084e-38 309 265
-0.012168133 0.69400001 -0.030420333 1.2965665e-38 310 265
-0.01095132 0.69400001 -0.030420333 1.2965665e-38 311 265
-0.0097345067 0.69400001 -0.030420333 1.2783429e-38 312 265
-0.0085176928 0.69400001 -0.030420333 1.2783429e-38 313 265
-0.0073008798 0.69400001 -0.030420333 1.2693029e-38 314 265
-0.0060840664 0.69400001 -0.030420333 1.2600835e-38 315 265
-0.0048672534 0.69400001 -0.030420333 1.2600835e-38 316 265
-0.0036504399 0.69400001 -0.030420333 1.2416805e-38 317 265
-0.0024336267 0.69400001 -0.030420333 1.25994e-38 318 265
-0.0012168133 0.69400001 -0.030420333 1.25994e-38 319 265
0 0.69599998 -0.030507999 1.2507923e-38 320 265
0.0012203199 0.69599998 -0.030507999 1.2600117e-38 321 265
0.0024441467 0.69700003 -0.030551834 1.2417522e-38 322 265
0.00366622 0.69700003 -0.030551834 1.2602269e-38 323 265
0.0048953067 0.69800001 -0.030595668 1.2511869e-38 324 265
0.006119133 0.69800001 -0.030595668 1.2511869e-38 325 265
0.0073639993 0.69999999 -0.030683333 1.2605139e-38 326 265
0.0085913334 0.69999999 -0.030683333 1.2512945e-38 327 265
0.0098326923 0.70099998 -0.030727165 1.2512586e-38 328 265
0.011061779 0.70099998 -0.030727165 1.2328198e-38 329 265
0.012325933 0.70300001 -0.030814834 1.2051615e-38 330 265
0.013558527 0.70300001 -0.030814834 1.1774674e-38 331 265
0.014812159 0.704 -0.030858666 1.1955116e-38 332 265
0.016046507 0.704 -0.030858666 1.1586339e-38 333 265
0.017280852 0.704 -0.030858666 1.1861128e-38 334 265
0.018567799 0.70599997 -0.030946331 1.1953323e-38 335 265
0.019805651 0.70599997 -0.030946331 1.2046593e-38 336 265
0.021043506 0.70599997 -0.030946331 1.241573e-38 337 265
0.022281358 0.70599997 -0.030946331 1.2235299e-38 338 265
0.023519212 0.70599997 -0.030946331 1.2327494e-38 339 265
0.024686933 0.704 -0.030858666 1.2792441e-38 340 265
0.02592128 0.704 -0.030858666 1.6756853e-38 341 265
0.027232772 0.70599997 -0.030946331 1.5937911e-38 342 265
-0.047371563 0.71100003 -0.032412119 1.3894117e-38 282 266
-0.046124939 0.71100003 -0.032412119 1.3894117e-38 283 266
-0.044878319 0.71100003 -0.032412119 1.4444737e-38 284 266
-0.043570329 0.70999998 -0.032366529 1.4352542e-38 285 266
-0.042325463 0.70999998 -0.032366529 1.4171365e-38 286 266
-0.040964879 0.708 -0.03227536 1.4540508e-38 287 266
-0.039667413 0.70700002 -0.032229774 1.4174594e-38 288 266
-0.038264744 0.704 -0.032093015 1.4082399e-38 289 266
-0.036872596 0.70099998 -0.031956252 1.4264994e-38 290 266
-0.035592664 0.69999999 -0.031910665 1.4080606e-38 291 266
-0.034267146 0.69800001 -0.031819493 1.4170293e-38 292 266
-0.03299598 0.69700003 -0.03177391 1.4078097e-38 293 266
-0.03177391 0.69700003 -0.03177391 1.4261086e-38 294 266
-0.030507999 0.69599998 -0.031728316 1.4537671e-38 295 266
-0.029203519 0.69400001 -0.031637147 1.4352949e-38 296 266
-0.027986705 0.69400001 -0.031637147 1.4537341e-38 297 266
-0.026769891 0.69400001 -0.031637147 1.4262173e-38 298 266
-0.025553079 0.69400001 -0.031637147 1.4262173e-38 299 266
-0.024301201 0.69300002 -0.031591557 1.4538375e-38 300 266
-0.02308614 0.69300002 -0.031591557 1.4169592e-38 301 266
-0.021871079 0.69300002 -0.031591557 1.4168145e-38 302 266
-0.020685827 0.69400001 -0.031637147 1.3707525e-38 303 266
-0.019469013 0.69400001 -0.031637147 1.3889043e-38 304 266
-0.0182522 0.69400001 -0.031637147 1.3612819e-38 305 266
-0.017035386 0.69400001 -0.031637147 1.342843e-38 306 266
-0.015795778 0.69300002 -0.031591557 1.3336236e-38 307 266
-0.014580719 0.69300002 -0.031591557 1.3150771e-38 308 266
-0.01336566 0.69300002 -0.031591557 1.3058577e-38 309 266
-0.012150601 0.69300002 -0.031591557 1.2782712e-38 310 266
-0.01095132 0.69400001 -0.031637147 1.2782712e-38 311 266
-0.0097345067 0.69400001 -0.031637147 1.2600117e-38 312 266
-0.0085176928 0.69400001 -0.031637147 1.2692311e-38 313 266
-0.0073008798 0.69400001 -0.031637147 1.269267e-38 314 266
-0.0060840664 0.69400001 -0.031637147 1.269267e-38 315 266
-0.0048672534 0.69400001 -0.031637147 1.2417522e-38 316 266
-0.0036504399 0.69400001 -0.031637147 1.2325328e-38 317 266
-0.0024336267 0.69400001 -0.031637147 1.2416805e-38 318 266
-0.0012203199 0.69599998 -0.031728316 1.2416805e-38 319 266
0 0.69599998 -0.031728316 1.2507923e-38 320 266
0.0012220733 0.69700003 -0.03177391 1.2600117e-38 321 266
0.0024441467 0.69700003 -0.03177391 1.2234927e-38 322 266
0.0036714801 0.69800001 -0.031819493 1.2327122e-38 323 266
0.0048953067 0.69800001 -0.031819493 1.2419675e-38 324 266
0.0061366665 0.69999999 -0.031910665 1.2511869e-38 325 266
0.0073639993 0.69999999 -0.031910665 1.2512945e-38 326 266
0.0085913334 0.69999999 -0.031910665 1.2605139e-38 327 266
0.0098326923 0.70099998 -0.031956252 1.2512945e-38 328 266
0.011061779 0.70099998 -0.031956252 1.2512945e-38 329 266
0.012325933 0.70300001 -0.032047424 1.2052333e-38 330 266
0.013558527 0.70300001 -0.032047424 1.1867944e-38 331 266
0.014812159 0.704 -0.032093015 1.1956551e-38 332 266
0.016046507 0.704 -0.032093015 1.1772163e-38 333 266
0.017280852 0.704 -0.032093015 1.1953681e-38 334 266
0.018567799 0.70599997 -0.032184184 1.2229905e-38 335 266
0.019805651 0.70599997 -0.032184184 1.2048387e-38 336 266
0.021043506 0.70599997 -0.032184184 1.2325334e-38 337 266
0.022281358 0.70599997 -0.032184184 1.223602e-38 338 266
0.023519212 0.70599997 -0.032184184 1.2512609e-38 339 266
0.024686933 0.704 -0.032093015 1.3528571e-38 340 266
0.02592128 0.704 -0.032093015 1.7677733e-38 341 266
0.027232772 0.70599997 -0.032184184 1.6214499e-38 342 266
-0.047371563 0.71100003 -0.033658739 1.4172508e-38 282 267
-0.046124939 0.71100003 -0.033658739 1.4079954e-38 283 267
-0.044878319 0.71100003 -0.033658739 1.4355426e-38 284 267
-0.043631699 0.71100003 -0.033658739 1.426323e-38 285 267
-0.042325463 0.70999998 -0.033611398 1.417317e-38 286 267
-0.040964879 0.708 -0.033516716 1.4265366e-38 287 267
-0.039667413 0.70700002 -0.033469379 1.4175318e-38 288 267
-0.038264744 0.704 -0.03332736 1.4083122e-38 289 267
-0.036872596 0.70099998 -0.03318534 1.4080969e-38 290 267
-0.035643511 0.70099998 -0.03318534 1.3712546e-38 291 267
-0.034365334 0.69999999 -0.033137999 1.4260694e-38 292 267
-0.033043321 0.69800001 -0.033043321 1.4168498e-38 293 267
-0.03177391 0.69700003 -0.03299598 1.4350388e-38 294 267
-0.030551834 0.69700003 -0.03299598 1.4258192e-38 295 267
-0.029203519 0.69400001 -0.032853961 1.4166722e-38 296 267
-0.027986705 0.69400001 -0.032853961 1.4350754e-38 297 267
-0.026769891 0.69400001 -0.032853961 1.4259637e-38 298 267
-0.025553079 0.69400001 -0.032853961 1.4352191e-38 299 267
-0.024336265 0.69400001 -0.032853961 1.4077397e-38 300 267
-0.02308614 0.69300002 -0.03280662 1.4077397e-38 301 267
-0.021871079 0.69300002 -0.03280662 1.3892637e-38 302 267
-0.020685827 0.69400001 -0.032853961 1.361569e-38 303 267
-0.019469013 0.69400001 -0.032853961 1.3705372e-38 304 267
-0.0182522 0.69400001 -0.032853961 1.3520983e-38 305 267
-0.017035386 0.69400001 -0.032853961 1.3428071e-38 306 267
-0.015818574 0.69400001 -0.032853961 1.3243324e-38 307 267
-0.014580719 0.69300002 -0.03280662 1.3059295e-38 308 267
-0.01336566 0.69300002 -0.03280662 1.2874906e-38 309 267
-0.012150601 0.69300002 -0.03280662 1.2690518e-38 310 267
-0.01095132 0.69400001 -0.032853961 1.2782712e-38 311 267
-0.0097345067 0.69400001 -0.032853961 1.2783429e-38 312 267
-0.0085176928 0.69400001 -0.032853961 1.2783429e-38 313 267
-0.0073008798 0.69400001 -0.032853961 1.2509716e-38 314 267
-0.0060840664 0.69400001 -0.032853961 1.2417522e-38 315 267
-0.0048672534 0.69400001 -0.032853961 1.2326404e-38 316 267
-0.0036504399 0.69400001 -0.032853961 1.2326404e-38 317 267
-0.0024336267 0.69400001 -0.032853961 1.2326404e-38 318 267
-0.0012203199 0.69599998 -0.032948639 1.2142016e-38 319 267
0 0.69599998 -0.032948639 1.2324611e-38 320 267
0.0012220733 0.69700003 -0.03299598 1.2324611e-38 321 267
0.0024441467 0.69700003 -0.03299598 1.2326404e-38 322 267
0.0036714801 0.69800001 -0.033043321 1.2602987e-38 323 267
0.0049093333 0.69999999 -0.033137999 1.2511869e-38 324 267
0.0061366665 0.69999999 -0.033137999 1.2511869e-38 325 267
0.0073639993 0.69999999 -0.033137999 1.2512945e-38 326 267
0.0085913334 0.69999999 -0.033137999 1.2512945e-38 327 267
0.0098326923 0.70099998 -0.03318534 1.2329633e-38 328 267
0.01109334 0.70300001 -0.033280019 1.2329633e-38 329 267
0.012325933 0.70300001 -0.033280019 1.2144527e-38 330 267
0.013577812 0.704 -0.03332736 1.1867944e-38 331 267
0.014812159 0.704 -0.03332736 1.1866151e-38 332 267
0.016046507 0.704 -0.03332736 1.1497015e-38 333 267
0.017280852 0.704 -0.03332736 1.1863998e-38 334 267
0.018567799 0.70599997 -0.033422034 1.1956192e-38 335 267
0.019805651 0.70599997 -0.033422034 1.2048387e-38 336 267
0.021073313 0.70700002 -0.033469379 1.2509365e-38 337 267
0.022312919 0.70700002 -0.033469379 1.2604081e-38 338 267
0.023452586 0.704 -0.03332736 1.2696277e-38 339 267
0.024686933 0.704 -0.03332736 1.3902396e-38 340 267
0.025994917 0.70599997 -0.033422034 1.7313993e-38 341 267
0.027232772 0.70599997 -0.033422034 1.5938635e-38 342 267
-0.046254687 0.713 -0.035003547 1.35293e-38 283 268
-0.044878319 0.71100003 -0.034905359 1.4539098e-38 284 268
-0.043631699 0.71100003 -0.034905359 1.4354707e-38 285 268
-0.042325463 0.70999998 -0.034856264 1.4265363e-38 286 268
-0.040964879 0.708 -0.034758076 1.4541589e-38 287 268
-0.039667413 0.70700002 -0.034708988 1.4176391e-38 288 268
-0.038264744 0.704 -0.034561705 1.399164e-38 289 268
-0.036977798 0.70300001 -0.034512613 1.4081323e-38 290 268
-0.035643511 0.70099998 -0.034414422 1.3712546e-38 291 268
-0.034365334 0.69999999 -0.034365334 1.4260694e-38 292 268
-0.033043321 0.69800001 -0.034267146 1.3984107e-38 293 268
-0.03177391 0.69700003 -0.034218054 1.3982327e-38 294 268
-0.030551834 0.69700003 -0.034218054 1.3982327e-38 295 268
-0.029287677 0.69599998 -0.034168959 1.3981977e-38 296 268
-0.027986705 0.69400001 -0.034070771 1.4074174e-38 297 268
-0.026769891 0.69400001 -0.034070771 1.3984132e-38 298 268
-0.025553079 0.69400001 -0.034070771 1.3984132e-38 299 268
-0.024336265 0.69400001 -0.034070771 1.389265e-38 300 268
-0.023119451 0.69400001 -0.034070771 1.3800454e-38 301 268
-0.021902639 0.69400001 -0.034070771 1.3799721e-38 302 268
-0.020685827 0.69400001 -0.034070771 1.3522777e-38 303 268
-0.019469013 0.69400001 -0.034070771 1.3705013e-38 304 268
-0.0182522 0.69400001 -0.034070771 1.3520266e-38 305 268
-0.017035386 0.69400001 -0.034070771 1.3152565e-38 306 268
-0.015818574 0.69400001 -0.034070771 1.3060371e-38 307 268
-0.01460176 0.69400001 -0.034070771 1.3058577e-38 308 268
-0.013384946 0.69400001 -0.034070771 1.2966383e-38 309 268
-0.012168133 0.69400001 -0.034070771 1.2690159e-38 310 268
-0.01095132 0.69400001 -0.034070771 1.2690159e-38 311 268
-0.0097345067 0.69400001 -0.034070771 1.2507923e-38 312 268
-0.0085176928 0.69400001 -0.034070771 1.2600117e-38 313 268
-0.0073008798 0.69400001 -0.034070771 1.2600835e-38 314 268
-0.0060840664 0.69400001 -0.034070771 1.2600835e-38 315 268
-0.0048672534 0.69400001 -0.034070771 1.223421e-38 316 268
-0.0036609597 0.69599998 -0.034168959 1.223421e-38 317 268
-0.0024406398 0.69599998 -0.034168959 1.223421e-38 318 268
-0.0012203199 0.69599998 -0.034168959 1.2142016e-38 319 268
0 0.69700003 -0.034218054 1.2324611e-38 320 268
0.0012220733 0.69700003 -0.034218054 1.2416805e-38 321 268
0.0024476533 0.69800001 -0.034267146 1.223421e-38 322 268
0.0036714801 0.69800001 -0.034267146 1.2510434e-38 323 268
0.0049093333 0.69999999 -0.034365334 1.2419675e-38 324 268
0.0061366665 0.69999999 -0.034365334 1.2511869e-38 325 268
0.0073639993 0.69999999 -0.034365334 1.2512945e-38 326 268
0.0085913334 0.69999999 -0.034365334 1.2605139e-38 327 268
0.0098326923 0.70099998 -0.034414422 1.2329633e-38 328 268
0.01109334 0.70300001 -0.034512613 1.223708e-38 329 268
0.012343466 0.704 -0.034561705 1.2144886e-38 330 268
0.013577812 0.704 -0.034561705 1.2052691e-38 331 268
0.014812159 0.704 -0.034561705 1.2142016e-38 332 268
0.016046507 0.704 -0.034561705 1.1957269e-38 333 268
0.017329946 0.70599997 -0.034659892 1.1863998e-38 334 268
0.018567799 0.70599997 -0.034659892 1.2048387e-38 335 268
0.019833706 0.70700002 -0.034708988 1.2232785e-38 336 268
0.021073313 0.70700002 -0.034708988 1.2601207e-38 337 268
0.022312919 0.70700002 -0.034708988 1.2052352e-38 338 268
0.023452586 0.704 -0.034561705 1.3988461e-38 339 268
0.024686933 0.704 -0.034561705 1.4640685e-38 340 268
0.02592128 0.704 -0.034561705 1.7406555e-38 341 268
-0.046254687 0.713 -0.036253672 1.3072285e-38 283 269
-0.044878319 0.71100003 -0.036151983 1.4262877e-38 284 269
-0.043631699 0.71100003 -0.036151983 1.4447268e-38 285 269
-0.042325463 0.70999998 -0.036101133 1.4357924e-38 286 269
-0.040964879 0.708 -0.03599944 1.445048e-38 287 269
-0.039667413 0.70700002 -0.035948593 1.4176757e-38 288 269
-0.038264744 0.704 -0.035796054 1.3992726e-38 289 269
-0.036977798 0.70300001 -0.035745207 1.4174239e-38 290 269
-0.035643511 0.70099998 -0.035643511 1.3805458e-38 291 269
-0.034365334 0.69999999 -0.035592664 1.4261766e-38 292 269
-0.033043321 0.69800001 -0.035490975 1.37086e-38 293 269
-0.031819493 0.69800001 -0.035490975 1.4074153e-38 294 269
-0.030551834 0.69700003 -0.035440128 1.4074153e-38 295 269
-0.029287677 0.69599998 -0.035389278 1.4073797e-38 296 269
-0.028067358 0.69599998 -0.035389278 1.4165992e-38 297 269
-0.026847038 0.69599998 -0.035389278 1.39834e-38 298 269
-0.025553079 0.69400001 -0.035287585 1.39834e-38 299 269
-0.024336265 0.69400001 -0.035287585 1.3892287e-38 300 269
-0.023119451 0.69400001 -0.035287585 1.3799732e-38 301 269
-0.021902639 0.69400001 -0.035287585 1.3707172e-38 302 269
-0.020685827 0.69400001 -0.035287585 1.3522422e-38 303 269
-0.019525118 0.69599998 -0.035389278 1.361246e-38 304 269
-0.0182522 0.69400001 -0.035287585 1.3520266e-38 305 269
-0.017035386 0.69400001 -0.035287585 1.3244759e-38 306 269
-0.015818574 0.69400001 -0.035287585 1.2968177e-38 307 269
-0.01460176 0.69400001 -0.035287585 1.2874906e-38 308 269
-0.013384946 0.69400001 -0.035287585 1.2598323e-38 309 269
-0.012168133 0.69400001 -0.035287585 1.2597247e-38 310 269
-0.01095132 0.69400001 -0.035287585 1.2689441e-38 311 269
-0.0097345067 0.69400001 -0.035287585 1.2507923e-38 312 269
-0.0085176928 0.69400001 -0.035287585 1.2507923e-38 313 269
-0.0073008798 0.69400001 -0.035287585 1.2416805e-38 314 269
-0.0060840664 0.69400001 -0.035287585 1.2416805e-38 315 269
-0.0048812795 0.69599998 -0.035389278 1.2417522e-38 316 269
-0.0036609597 0.69599998 -0.035389278 1.2417522e-38 317 269
-0.0024406398 0.69599998 -0.035389278 1.2417522e-38 318 269
-0.0012203199 0.69599998 -0.035389278 1.2325328e-38 319 269
0 0.69700003 -0.035440128 1.2324611e-38 320 269
0.0012220733 0.69700003 -0.035440128 1.2324611e-38 321 269
0.0024476533 0.69800001 -0.035490975 1.2325328e-38 322 269
0.0036714801 0.69800001 -0.035490975 1.2602269e-38 323 269
0.0049093333 0.69999999 -0.035592664 1.2419675e-38 324 269
0.0061366665 0.69999999 -0.035592664 1.2511869e-38 325 269
0.0073639993 0.69999999 -0.035592664 1.2512586e-38 326 269
0.0086036054 0.70099998 -0.035643511 1.2512586e-38 327 269
0.0098607466 0.70300001 -0.035745207 1.2329633e-38 328 269
0.01109334 0.70300001 -0.035745207 1.2329633e-38 329 269
0.012343466 0.704 -0.035796054 1.2144886e-38 330 269
0.013577812 0.704 -0.035796054 1.2052691e-38 331 269
0.014812159 0.704 -0.035796054 1.2142733e-38 332 269
0.016046507 0.704 -0.035796054 1.1773956e-38 333 269
0.017329946 0.70599997 -0.035897743 1.1864716e-38 334 269
0.018567799 0.70599997 -0.035897743 1.1864716e-38 335 269
0.019833706 0.70700002 -0.035948593 1.2323897e-38 336 269
0.021073313 0.70700002 -0.035948593 1.2508649e-38 337 269
0.022344479 0.708 -0.03599944 1.2142031e-38 338 269
0.023585839 0.708 -0.03599944 1.5276683e-38 339 269
0.024827199 0.708 -0.03599944 1.4736479e-38 340 269
-0.046060063 0.70999998 -0.037345998 1.2984052e-38 283 270
-0.044815198 0.70999998 -0.037345998 1.3987016e-38 284 270
-0.043570329 0.70999998 -0.037345998 1.4632385e-38 285 270
-0.042325463 0.70999998 -0.037345998 1.435865e-38 286 270
-0.040964879 0.708 -0.0372408 1.4450846e-38 287 270
-0.039667413 0.70700002 -0.037188202 1.4085285e-38 288 270
-0.038264744 0.704 -0.037030395 1.3993089e-38 289 270
-0.036977798 0.70300001 -0.036977798 1.4175315e-38 290 270
-0.035643511 0.70099998 -0.036872596 1.3806534e-38 291 270
-0.034365334 0.69999999 -0.036819998 1.4170648e-38 292 270
-0.033137999 0.69999999 -0.036819998 1.3525288e-38 293 270
-0.031819493 0.69800001 -0.0367148 1.3799721e-38 294 270
-0.030551834 0.69700003 -0.036662199 1.3707525e-38 295 270
-0.02932976 0.69700003 -0.036662199 1.4074153e-38 296 270
-0.028067358 0.69599998 -0.036609598 1.4166348e-38 297 270
-0.026847038 0.69599998 -0.036609598 1.3799365e-38 298 270
-0.025553079 0.69400001 -0.036504399 1.3983398e-38 299 270
-0.024336265 0.69400001 -0.036504399 1.3800088e-38 300 270
-0.023186078 0.69599998 -0.036609598 1.3707891e-38 301 270
-0.021902639 0.69400001 -0.036504399 1.3614974e-38 302 270
-0.020685827 0.69400001 -0.036504399 1.3430583e-38 303 270
-0.019525118 0.69599998 -0.036609598 1.3520983e-38 304 270
-0.018304799 0.69599998 -0.036609598 1.3244759e-38 305 270
-0.017035386 0.69400001 -0.036504399 1.3152565e-38 306 270
-0.015818574 0.69400001 -0.036504399 1.2968177e-38 307 270
-0.01460176 0.69400001 -0.036504399 1.2782712e-38 308 270
-0.013384946 0.69400001 -0.036504399 1.2690518e-38 309 270
-0.012168133 0.69400001 -0.036504399 1.2689441e-38 310 270
-0.01095132 0.69400001 -0.036504399 1.2689441e-38 311 270
-0.0097345067 0.69400001 -0.036504399 1.2507564e-38 312 270
-0.0085176928 0.69400001 -0.036504399 1.2507564e-38 313 270
-0.0073219193 0.69599998 -0.036609598 1.2416805e-38 314 270
-0.0061015999 0.69599998 -0.036609598 1.2416805e-38 315 270
-0.0048812795 0.69599998 -0.036609598 1.2142016e-38 316 270
-0.0036609597 0.69599998 -0.036609598 1.223421e-38 317 270
-0.0024441467 0.69700003 -0.036662199 1.2417522e-38 318 270
-0.0012220733 0.69700003 -0.036662199 1.2325328e-38 319 270
0 0.69700003 -0.036662199 1.2324611e-38 320 270
0.0012238267 0.69800001 -0.0367148 1.2324611e-38 321 270
0.0024476533 0.69800001 -0.0367148 1.2142016e-38 322 270
0.0036819996 0.69999999 -0.036819998 1.2326404e-38 323 270
0.0049093333 0.69999999 -0.036819998 1.2510793e-38 324 270
0.0061366665 0.69999999 -0.036819998 1.2602987e-38 325 270
0.0073745195 0.70099998 -0.036872596 1.223708e-38 326 270
0.0086036054 0.70099998 -0.036872596 1.2329274e-38 327 270
0.0098607466 0.70300001 -0.036977798 1.233035e-38 328 270
0.01109334 0.70300001 -0.036977798 1.233035e-38 329 270
0.012343466 0.704 -0.037030395 1.2145603e-38 330 270
0.013577812 0.704 -0.037030395 1.186902e-38 331 270
0.014812159 0.704 -0.037030395 1.2234927e-38 332 270
0.016092092 0.70599997 -0.037135597 1.1866151e-38 333 270
0.017329946 0.70599997 -0.037135597 1.2048028e-38 334 270
0.018567799 0.70599997 -0.037135597 1.2048028e-38 335 270
0.019833706 0.70700002 -0.037188202 1.23239e-38 336 270
0.021073313 0.70700002 -0.037188202 1.23239e-38 337 270
0.022344479 0.708 -0.0372408 1.2142753e-38 338 270
0.023585839 0.708 -0.0372408 1.6014969e-38 339 270
-0.044815198 0.70999998 -0.038590867 1.3988463e-38 284 271
-0.043570329 0.70999998 -0.038590867 1.4449441e-38 285 271
-0.042206239 0.708 -0.038482159 1.4450495e-38 286 271
-0.040964879 0.708 -0.038482159 1.4542691e-38 287 271
-0.039667413 0.70700002 -0.038427804 1.4177483e-38 288 271
-0.038264744 0.704 -0.038264744 1.4177483e-38 289 271
-0.037030395 0.704 -0.038264744 1.4268231e-38 290 271
-0.035643511 0.70099998 -0.038101684 1.3715416e-38 291 271
-0.034365334 0.69999999 -0.038047329 1.4171006e-38 292 271
-0.033043321 0.69800001 -0.037938625 1.3617841e-38 293 271
-0.031819493 0.69800001 -0.037938625 1.3890836e-38 294 271
-0.030595668 0.69800001 -0.037938625 1.3890836e-38 295 271
-0.02932976 0.69700003 -0.037884273 1.3890838e-38 296 271
-0.028107686 0.69700003 -0.037884273 1.3890838e-38 297 271
-0.026885614 0.69700003 -0.037884273 1.3707525e-38 298 271
-0.025626717 0.69599998 -0.037829921 1.3799721e-38 299 271
-0.0244064 0.69599998 -0.037829921 1.3707888e-38 300 271
-0.023186078 0.69599998 -0.037829921 1.3615693e-38 301 271
-0.021965759 0.69599998 -0.037829921 1.3522778e-38 302 271
-0.020745439 0.69599998 -0.037829921 1.333803e-38 303 271
-0.019553173 0.69700003 -0.037884273 1.3429148e-38 304 271
-0.018304799 0.69599998 -0.037829921 1.3245118e-38 305 271
-0.017084479 0.69599998 -0.037829921 1.3060729e-38 306 271
-0.015864158 0.69599998 -0.037829921 1.2968177e-38 307 271
-0.01460176 0.69400001 -0.037721213 1.2782712e-38 308 271
-0.013384946 0.69400001 -0.037721213 1.2690518e-38 309 271
-0.012168133 0.69400001 -0.037721213 1.2597965e-38 310 271
-0.01095132 0.69400001 -0.037721213 1.2690159e-38 311 271
-0.0097625591 0.69599998 -0.037829921 1.2507923e-38 312 271
-0.0085422397 0.69599998 -0.037829921 1.2507923e-38 313 271
-0.0073219193 0.69599998 -0.037829921 1.2324611e-38 314 271
-0.0061015999 0.69599998 -0.037829921 1.2416805e-38 315 271
-0.0048812795 0.69599998 -0.037829921 1.2417522e-38 316 271
-0.0036609597 0.69599998 -0.037829921 1.2417522e-38 317 271
-0.0024441467 0.69700003 -0.037884273 1.223421e-38 318 271
-0.0012220733 0.69700003 -0.037884273 1.2142016e-38 319 271
0 0.69800001 -0.037938625 1.2233134e-38 320 271
0.0012238267 0.69800001 -0.037938625 1.2233134e-38 321 271
0.0024546667 0.69999999 -0.038047329 1.2233134e-38 322 271
0.0036819996 0.69999999 -0.038047329 1.2417522e-38 323 271
0.0049163462 0.70099998 -0.038101684 1.2234927e-38 324 271
0.0061454331 0.70099998 -0.038101684 1.2419675e-38 325 271
0.0073745195 0.70099998 -0.038101684 1.2420751e-38 326 271
0.0086281532 0.70300001 -0.038210396 1.2605139e-38 327 271
0.0098747732 0.704 -0.038264744 1.233035e-38 328 271
0.011109119 0.704 -0.038264744 1.2237797e-38 329 271
0.012343466 0.704 -0.038264744 1.2144886e-38 330 271
0.013577812 0.704 -0.038264744 1.2052691e-38 331 271
0.014854239 0.70599997 -0.038373452 1.2142733e-38 332 271
0.016092092 0.70599997 -0.038373452 1.205018e-38 333 271
0.017329946 0.70599997 -0.038373452 1.1865433e-38 334 271
0.018567799 0.70599997 -0.038373452 1.1865433e-38 335 271
0.019833706 0.70700002 -0.038427804 1.2141304e-38 336 271
0.021103119 0.708 -0.038482159 1.2233501e-38 337 271
0.022344479 0.708 -0.038482159 1.2420066e-38 338 271
-0.044688959 0.708 -0.039723519 1.4083899e-38 284 272
-0.043447599 0.708 -0.039723519 1.3807313e-38 285 272
-0.042206239 0.708 -0.039723519 1.4267546e-38 286 272
-0.040964879 0.708 -0.039723519 1.4359742e-38 287 272
-0.039667413 0.70700002 -0.039667413 1.4086735e-38 288 272
-0.038264744 0.704 -0.039499093 1.3994539e-38 289 272
-0.036977798 0.70300001 -0.039442986 1.4177483e-38 290 272
-0.035643511 0.70099998 -0.039330769 1.3624309e-38 291 272
-0.034365334 0.69999999 -0.039274666 1.4171368e-38 292 272
-0.033043321 0.69800001 -0.039162453 1.36182e-38 293 272
-0.031819493 0.69800001 -0.039162453 1.3983749e-38 294 272
-0.030595668 0.69800001 -0.039162453 1.3799718e-38 295 272
-0.02932976 0.69700003 -0.039106347 1.3799365e-38 296 272
-0.028107686 0.69700003 -0.039106347 1.3983398e-38 297 272
-0.026885614 0.69700003 -0.039106347 1.3617125e-38 298 272
-0.025663542 0.69700003 -0.039106347 1.3524929e-38 299 272
-0.024441468 0.69700003 -0.039106347 1.3617125e-38 300 272
-0.023186078 0.69599998 -0.039050236 1.3617125e-38 301 272
-0.021965759 0.69599998 -0.039050236 1.361569e-38 302 272
-0.020745439 0.69599998 -0.039050236 1.3339465e-38 303 272
-0.019553173 0.69700003 -0.039106347 1.3245477e-38 304 272
-0.018304799 0.69599998 -0.039050236 1.3061088e-38 305 272
-0.017084479 0.69599998 -0.039050236 1.3060371e-38 306 272
-0.015864158 0.69599998 -0.039050236 1.2875624e-38 307 272
-0.01460176 0.69400001 -0.038938027 1.2783429e-38 308 272
-0.013384946 0.69400001 -0.038938027 1.2507205e-38 309 272
-0.012168133 0.69400001 -0.038938027 1.241537e-38 310 272
-0.01095132 0.69400001 -0.038938027 1.241537e-38 311 272
-0.0097625591 0.69599998 -0.039050236 1.2507923e-38 312 272
-0.0085422397 0.69599998 -0.039050236 1.2507923e-38 313 272
-0.0073219193 0.69599998 -0.039050236 1.2324969e-38 314 272
-0.0061015999 0.69599998 -0.039050236 1.2417522e-38 315 272
-0.0048812795 0.69599998 -0.039050236 1.2417522e-38 316 272
-0.00366622 0.69700003 -0.039106347 1.2417522e-38 317 272
-0.0024476533 0.69800001 -0.039162453 1.2142016e-38 318 272
-0.0012238267 0.69800001 -0.039162453 1.223421e-38 319 272
0 0.69800001 -0.039162453 1.2142733e-38 320 272
0.0012273333 0.69999999 -0.039274666 1.1866151e-38 321 272
0.0024546667 0.69999999 -0.039274666 1.2325328e-38 322 272
0.0036819996 0.69999999 -0.039274666 1.2417522e-38 323 272
0.0049163462 0.70099998 -0.039330769 1.2326763e-38 324 272
0.0061454331 0.70099998 -0.039330769 1.2510793e-38 325 272
0.0073745195 0.70099998 -0.039330769 1.223708e-38 326 272
0.0086281532 0.70300001 -0.039442986 1.2329274e-38 327 272
0.0098747732 0.704 -0.039499093 1.2329274e-38 328 272
0.011109119 0.704 -0.039499093 1.223708e-38 329 272
0.012378532 0.70599997 -0.039611302 1.2327839e-38 330 272
0.013616386 0.70599997 -0.039611302 1.2143809e-38 331 272
0.014854239 0.70599997 -0.039611302 1.2050898e-38 332 272
0.016092092 0.70599997 -0.039611302 1.1866509e-38 333 272
0.017329946 0.70599997 -0.039611302 1.1865077e-38 334 272
0.018594101 0.70700002 -0.039667413 1.2049108e-38 335 272
0.019833706 0.70700002 -0.039667413 1.1957637e-38 336 272
0.021103119 0.708 -0.039723519 1.2695561e-38 337 272
-0.043447599 0.708 -0.040964879 1.3349581e-38 285 273
-0.042206239 0.708 -0.040964879 1.4727085e-38 286 273
-0.040964879 0.708 -0.040964879 1.4634889e-38 287 273
-0.039667413 0.70700002 -0.040907022 1.3994902e-38 288 273
-0.038264744 0.704 -0.040733438 1.3994902e-38 289 273
-0.036977798 0.70300001 -0.040675577 1.4085641e-38 290 273
-0.035643511 0.70099998 -0.040559858 1.3900891e-38 291 273
-0.034365334 0.69999999 -0.040502001 1.4264277e-38 292 273
-0.033137999 0.69999999 -0.040502001 1.3803306e-38 293 273
-0.031819493 0.69800001 -0.040386278 1.407666e-38 294 273
-0.030595668 0.69800001 -0.040386278 1.3984465e-38 295 273
-0.02932976 0.69700003 -0.040328421 1.3800437e-38 296 273
-0.028107686 0.69700003 -0.040328421 1.3800437e-38 297 273
-0.026885614 0.69700003 -0.040328421 1.3800794e-38 298 273
-0.025663542 0.69700003 -0.040328421 1.3892989e-38 299 273
-0.024441468 0.69700003 -0.040328421 1.3801871e-38 300 273
-0.023186078 0.69599998 -0.040270556 1.3617841e-38 301 273
-0.021965759 0.69599998 -0.040270556 1.3616406e-38 302 273
-0.020745439 0.69599998 -0.040270556 1.3247988e-38 303 273
-0.019553173 0.69700003 -0.040328421 1.3429148e-38 304 273
-0.018304799 0.69599998 -0.040270556 1.3060729e-38 305 273
-0.017084479 0.69599998 -0.040270556 1.3060371e-38 306 273
-0.015864158 0.69599998 -0.040270556 1.2968177e-38 307 273
-0.01460176 0.69400001 -0.040154841 1.2966383e-38 308 273
-0.013384946 0.69400001 -0.040154841 1.2966383e-38 309 273
-0.012168133 0.69400001 -0.040154841 1.2782712e-38 310 273
-0.01095132 0.69400001 -0.040154841 1.2690518e-38 311 273
-0.0097625591 0.69599998 -0.040270556 1.2507923e-38 312 273
-0.0085422397 0.69599998 -0.040270556 1.2692311e-38 313 273
-0.0073219193 0.69599998 -0.040270556 1.2417522e-38 314 273
-0.0061015999 0.69599998 -0.040270556 1.2325328e-38 315 273
-0.0048882933 0.69700003 -0.040328421 1.2417522e-38 316 273
-0.0036714801 0.69800001 -0.040386278 1.2417522e-38 317 273
-0.0024476533 0.69800001 -0.040386278 1.2234927e-38 318 273
-0.0012238267 0.69800001 -0.040386278 1.2234927e-38 319 273
0 0.69800001 -0.040386278 1.2234927e-38 320 273
0.0012273333 0.69999999 -0.040502001 1.2234927e-38 321 273
0.0024546667 0.69999999 -0.040502001 1.2142016e-38 322 273
0.0036819996 0.69999999 -0.040502001 1.223421e-38 323 273
0.0049163462 0.70099998 -0.040559858 1.2234927e-38 324 273
0.0061454331 0.70099998 -0.040559858 1.2419675e-38 325 273
0.0073955595 0.70300001 -0.040675577 1.2420392e-38 326 273
0.0086404262 0.704 -0.040733438 1.2512586e-38 327 273
0.0098747732 0.704 -0.040733438 1.2420392e-38 328 273
0.011140679 0.70599997 -0.040849157 1.2420392e-38 329 273
0.012378532 0.70599997 -0.040849157 1.2327839e-38 330 273
