# .PCD v.7 - Point Cloud Data file format
FIELDS x y z rgb imX imY
SIZE 4 4 4 4 4 4
TYPE F F F F F F
COUNT 1 1 1 1 1 1
WIDTH 837
HEIGHT 1
VIEWPOINT 0 0 0 1 0 0 0
POINTS 837
DATA ascii
0.031779166 0.72500002 -0.025423333 1.7408003e-38 345 260
-0.041312039 0.71399999 -0.026289478 9.7568544e-39 287 261
-0.040004052 0.713 -0.026252659 1.2508311e-38 288 261
-0.038753927 0.713 -0.026252659 1.167891e-38 289 261
-0.037398599 0.71100003 -0.026179021 1.1857186e-38 290 261
-0.036151983 0.71100003 -0.026179021 1.1395852e-38 291 261
-0.034856264 0.70999998 -0.026142199 1.1759969e-38 292 261
-0.033516716 0.708 -0.026068559 1.1759969e-38 293 261
-0.03227536 0.708 -0.026068559 1.1393001e-38 294 261
-0.030946331 0.70599997 -0.025994917 1.1761783e-38 295 261
-0.029708479 0.70599997 -0.025994917 1.1304771e-38 296 261
-0.028389972 0.704 -0.02592128 1.1857945e-38 297 261
-0.027117053 0.70300001 -0.025884461 1.1678238e-38 298 261
-0.025884461 0.70300001 -0.025884461 1.2047022e-38 299 261
-0.024651866 0.70300001 -0.025884461 1.186515e-38 300 261
-0.023419274 0.70300001 -0.025884461 1.1957347e-38 301 261
-0.022123558 0.70099998 -0.025810819 1.2229968e-38 302 261
-0.020894472 0.70099998 -0.025810819 1.1308011e-38 303 261
-0.019665385 0.70099998 -0.025810819 1.1580283e-38 304 261
-0.018436298 0.70099998 -0.025810819 1.1672478e-38 305 261
-0.017207211 0.70099998 -0.025810819 1.1304771e-38 306 261
-0.015955333 0.69999999 -0.025773998 1.112038e-38 307 261
-0.014727999 0.69999999 -0.025773998 1.1210762e-38 308 261
-0.013500666 0.69999999 -0.025773998 1.0933815e-38 309 261
-0.012273333 0.69999999 -0.025773998 1.1116764e-38 310 261
-0.011045999 0.69999999 -0.025773998 1.1024569e-38 311 261
-0.0098186666 0.69999999 -0.025773998 1.0931297e-38 312 261
-0.0085913334 0.69999999 -0.025773998 1.0839101e-38 313 261
-0.0073639993 0.69999999 -0.025773998 1.0563962e-38 314 261
-0.006119133 0.69800001 -0.025700359 1.0287376e-38 315 261
-0.0048953067 0.69800001 -0.025700359 1.0287376e-38 316 261
-0.0036714801 0.69800001 -0.025700359 1.0287376e-38 317 261
-0.0024476533 0.69800001 -0.025700359 1.0196255e-38 318 261
-0.0012238267 0.69800001 -0.025700359 1.0196255e-38 319 261
0 0.69800001 -0.025700359 1.0195537e-38 320 261
0.0012238267 0.69800001 -0.025700359 1.0287732e-38 321 261
0.0024476533 0.69800001 -0.025700359 1.0196255e-38 322 261
0.0036819996 0.69999999 -0.025773998 1.0196255e-38 323 261
0.0049093333 0.69999999 -0.025773998 1.0105136e-38 324 261
0.0061454331 0.70099998 -0.025810819 1.0105136e-38 325 261
0.0073745195 0.70099998 -0.025810819 9.8307127e-39 326 261
0.0086036054 0.70099998 -0.025810819 9.7385171e-39 327 261
0.0098607466 0.70300001 -0.025884461 9.7381639e-39 328 261
0.011109119 0.704 -0.02592128 9.7381639e-39 329 261
0.012343466 0.704 -0.02592128 9.7381611e-39 330 261
0.013577812 0.704 -0.02592128 9.7381611e-39 331 261
0.014854239 0.70599997 -0.025994917 9.7385171e-39 332 261
0.016092092 0.70599997 -0.025994917 9.5541272e-39 333 261
0.017329946 0.70599997 -0.025994917 9.1864237e-39 334 261
0.018594101 0.70700002 -0.02603174 9.1864237e-39 335 261
0.019833706 0.70700002 -0.02603174 9.1864237e-39 336 261
0.021162732 0.70999998 -0.026142199 9.4626504e-39 337 261
0.022439159 0.71100003 -0.026179021 9.2793382e-39 338 261
0.023852346 0.71600002 -0.026363119 9.4637294e-39 339 261
0.0251428 0.71700001 -0.02639994 9.832512e-39 340 261
0.026363119 0.71600002 -0.026363119 1.0385686e-38 341 261
0.027618507 0.71600002 -0.026363119 1.0298154e-38 342 261
0.028994869 0.71899998 -0.02647358 1.1773642e-38 343 261
0.030381758 0.722 -0.026584039 1.46425e-38 344 261
0.031779166 0.72500002 -0.026694499 1.7408369e-38 345 261
-0.041312039 0.71399999 -0.02754136 9.4831444e-39 287 262
-0.040004052 0.713 -0.027502786 1.2231731e-38 288 262
-0.038753927 0.713 -0.027502786 1.204698e-38 289 262
-0.037398599 0.71100003 -0.027425639 1.2133064e-38 290 262
-0.036151983 0.71100003 -0.027425639 1.1487695e-38 291 262
-0.034856264 0.70999998 -0.027387066 1.1577375e-38 292 262
-0.033516716 0.708 -0.027309919 1.1392625e-38 293 262
-0.03227536 0.708 -0.027309919 1.1301158e-38 294 262
-0.030946331 0.70599997 -0.027232772 1.1577386e-38 295 262
-0.029624319 0.704 -0.027155625 1.1395519e-38 296 262
-0.028389972 0.704 -0.027155625 1.1764301e-38 297 262
-0.027117053 0.70300001 -0.027117053 1.1490957e-38 298 262
-0.025884461 0.70300001 -0.027117053 1.1951935e-38 299 262
-0.024651866 0.70300001 -0.027117053 1.167715e-38 300 262
-0.023419274 0.70300001 -0.027117053 1.1492759e-38 301 262
-0.02218668 0.70300001 -0.027117053 1.1671754e-38 302 262
-0.020954086 0.70300001 -0.027117053 1.1487364e-38 303 262
-0.019665385 0.70099998 -0.027039904 1.1578837e-38 304 262
-0.018436298 0.70099998 -0.027039904 1.1671032e-38 305 262
-0.017207211 0.70099998 -0.027039904 1.1395522e-38 306 262
-0.015955333 0.69999999 -0.027001332 1.121113e-38 307 262
-0.014727999 0.69999999 -0.027001332 1.1118929e-38 308 262
-0.013500666 0.69999999 -0.027001332 1.0842701e-38 309 262
-0.012273333 0.69999999 -0.027001332 1.1116764e-38 310 262
-0.011045999 0.69999999 -0.027001332 1.0932373e-38 311 262
-0.0098186666 0.69999999 -0.027001332 1.0564312e-38 312 262
-0.0085913334 0.69999999 -0.027001332 1.0564312e-38 313 262
-0.0073429602 0.69800001 -0.026924185 1.0471763e-38 314 262
-0.006119133 0.69800001 -0.026924185 1.0287732e-38 315 262
-0.0048953067 0.69800001 -0.026924185 1.0287732e-38 316 262
-0.0036714801 0.69800001 -0.026924185 1.0287732e-38 317 262
-0.0024476533 0.69800001 -0.026924185 1.0287732e-38 318 262
-0.0012238267 0.69800001 -0.026924185 1.0102982e-38 319 262
0 0.69800001 -0.026924185 1.0195537e-38 320 262
0.0012238267 0.69800001 -0.026924185 1.0287732e-38 321 262
0.0024476533 0.69800001 -0.026924185 1.0103701e-38 322 262
0.0036819996 0.69999999 -0.027001332 1.0103701e-38 323 262
0.0049093333 0.69999999 -0.027001332 1.0012587e-38 324 262
0.0061454331 0.70099998 -0.027039904 1.0012587e-38 325 262
0.0073745195 0.70099998 -0.027039904 9.7377982e-39 326 262
0.0086036054 0.70099998 -0.027039904 9.6452438e-39 327 262
0.0098607466 0.70300001 -0.027117053 9.55413e-39 328 262
0.011109119 0.704 -0.027155625 9.55413e-39 329 262
0.012343466 0.704 -0.027155625 9.6452466e-39 330 262
0.013577812 0.704 -0.027155625 9.7374423e-39 331 262
0.014812159 0.704 -0.027155625 9.4619316e-39 332 262
0.016046507 0.704 -0.027155625 9.3697359e-39 333 262
0.017329946 0.70599997 -0.027232772 9.3697331e-39 334 262
0.018594101 0.70700002 -0.027271347 9.2775375e-39 335 262
0.019833706 0.70700002 -0.027271347 9.5534027e-39 336 262
0.021192541 0.71100003 -0.027425639 9.7381499e-39 337 262
0.022502279 0.713 -0.027502786 9.4644385e-39 338 262
0.023852346 0.71600002 -0.027618507 9.7406666e-39 339 262
0.0251428 0.71700001 -0.027657079 9.9272089e-39 340 262
0.026363119 0.71600002 -0.027618507 1.0388187e-38 341 262
0.027618507 0.71600002 -0.027618507 1.0850595e-38 342 262
0.028994869 0.71899998 -0.027734226 1.3155125e-38 343 262
0.030255521 0.71899998 -0.027734226 1.4921242e-38 344 262
-0.041312039 0.71399999 -0.028793238 9.8533689e-39 287 263
-0.040060159 0.71399999 -0.028793238 1.2598709e-38 288 263
-0.038753927 0.713 -0.028752912 1.2322481e-38 289 263
-0.037503798 0.713 -0.028752912 1.2317809e-38 290 263
-0.036253672 0.713 -0.028752912 1.1672439e-38 291 263
-0.034905359 0.71100003 -0.028672259 1.1670288e-38 292 263
-0.033611398 0.70999998 -0.028631933 1.1301864e-38 293 263
-0.03227536 0.708 -0.02855128 1.1301155e-38 294 263
-0.030946331 0.70599997 -0.028470624 1.1301155e-38 295 263
-0.029624319 0.704 -0.028389972 1.1393724e-38 296 263
-0.028389972 0.704 -0.028389972 1.1670311e-38 297 263
-0.027117053 0.70300001 -0.028349647 1.1212575e-38 298 263
-0.025884461 0.70300001 -0.028349647 1.1488803e-38 299 263
-0.024651866 0.70300001 -0.028349647 1.1305491e-38 300 263
-0.023419274 0.70300001 -0.028349647 1.0937067e-38 301 263
-0.02218668 0.70300001 -0.028349647 1.1485566e-38 302 263
-0.020954086 0.70300001 -0.028349647 1.1485566e-38 303 263
-0.019665385 0.70099998 -0.028268991 1.1210412e-38 304 263
-0.018436298 0.70099998 -0.028268991 1.1210412e-38 305 263
-0.017182667 0.69999999 -0.028228667 1.1210409e-38 306 263
-0.015955333 0.69999999 -0.028228667 1.1118212e-38 307 263
-0.014727999 0.69999999 -0.028228667 1.1026369e-38 308 263
-0.013500666 0.69999999 -0.028228667 1.0841619e-38 309 263
-0.012273333 0.69999999 -0.028228667 1.0933096e-38 310 263
-0.011045999 0.69999999 -0.028228667 1.0748705e-38 311 263
-0.0097906133 0.69800001 -0.028148014 1.0563959e-38 312 263
-0.0085667865 0.69800001 -0.028148014 1.0471763e-38 313 263
-0.0073429602 0.69800001 -0.028148014 1.0288451e-38 314 263
-0.006119133 0.69800001 -0.028148014 1.0196255e-38 315 263
-0.0048953067 0.69800001 -0.028148014 1.0196253e-38 316 263
-0.0036714801 0.69800001 -0.028148014 1.0196253e-38 317 263
-0.0024476533 0.69800001 -0.028148014 1.0287729e-38 318 263
-0.0012238267 0.69800001 -0.028148014 1.0195534e-38 319 263
0 0.69800001 -0.028148014 1.0195537e-38 320 263
0.0012238267 0.69800001 -0.028148014 1.0195537e-38 321 263
0.0024476533 0.69800001 -0.028148014 1.0103704e-38 322 263
0.0036819996 0.69999999 -0.028228667 1.0103704e-38 323 263
0.0049093333 0.69999999 -0.028228667 9.9203916e-39 324 263
0.0061454331 0.70099998 -0.028268991 9.9203916e-39 325 263
0.0073745195 0.70099998 -0.028268991 9.7370793e-39 326 263
0.0086036054 0.70099998 -0.028268991 9.7370793e-39 327 263
0.0098607466 0.70300001 -0.028349647 9.553051e-39 328 263
0.011109119 0.704 -0.028389972 9.553051e-39 329 263
0.012343466 0.704 -0.028389972 9.6445278e-39 330 263
0.013577812 0.704 -0.028389972 9.7367234e-39 331 263
0.014812159 0.704 -0.028389972 9.3697359e-39 332 263
0.016046507 0.704 -0.028389972 9.2775403e-39 333 263
0.017329946 0.70599997 -0.028470624 9.5526853e-39 334 263
0.018594101 0.70700002 -0.028510952 9.6448809e-39 335 263
0.019833706 0.70700002 -0.028510952 9.645597e-39 336 263
0.021162732 0.70999998 -0.028631933 9.8303469e-39 337 263
0.022439159 0.71100003 -0.028672259 9.5573544e-39 338 263
0.02378572 0.71399999 -0.028793238 1.0017972e-38 339 263
0.025107734 0.71600002 -0.028873893 1.0112676e-38 340 263
0.026363119 0.71600002 -0.028873893 1.0573296e-38 341 263
0.027618507 0.71600002 -0.028873893 1.1403766e-38 342 263
0.028873893 0.71600002 -0.028873893 1.4353666e-38 343 263
-0.041312039 0.71399999 -0.030045118 1.0960798e-38 287 264
-0.040004052 0.713 -0.030003037 1.2784903e-38 288 264
-0.038753927 0.713 -0.030003037 1.2231731e-38 289 264
-0.037503798 0.713 -0.030003037 1.2227408e-38 290 264
-0.036151983 0.71100003 -0.029918881 1.1582039e-38 291 264
-0.034856264 0.70999998 -0.029876797 1.1762837e-38 292 264
-0.033516716 0.708 -0.02979264 1.1578447e-38 293 264
-0.032229774 0.70700002 -0.029750559 1.1484105e-38 294 264
-0.030946331 0.70599997 -0.029708479 1.15763e-38 295 264
-0.029708479 0.70599997 -0.029708479 1.1484473e-38 296 264
-0.028389972 0.704 -0.029624319 1.1668866e-38 297 264
-0.027117053 0.70300001 -0.029582238 1.1394443e-38 298 264
-0.025884461 0.70300001 -0.029582238 1.1394443e-38 299 264
-0.024651866 0.70300001 -0.029582238 1.1210774e-38 300 264
-0.023419274 0.70300001 -0.029582238 1.0842351e-38 301 264
-0.02218668 0.70300001 -0.029582238 1.1300808e-38 302 264
-0.020894472 0.70099998 -0.029498078 1.1300808e-38 303 264
-0.019665385 0.70099998 -0.029498078 1.1209331e-38 304 264
-0.018436298 0.70099998 -0.029498078 1.1209331e-38 305 264
-0.017182667 0.69999999 -0.029455997 1.1118212e-38 306 264
-0.015955333 0.69999999 -0.029455997 1.1026016e-38 307 264
-0.014727999 0.69999999 -0.029455997 1.0933818e-38 308 264
-0.013500666 0.69999999 -0.029455997 1.0841622e-38 309 264
-0.012273333 0.69999999 -0.029455997 1.0748352e-38 310 264
-0.011045999 0.69999999 -0.029455997 1.0563959e-38 311 264
-0.0097906133 0.69800001 -0.029371841 1.0471407e-38 312 264
-0.0085667865 0.69800001 -0.029371841 1.0287376e-38 313 264
-0.0073429602 0.69800001 -0.029371841 1.0196255e-38 314 264
-0.006119133 0.69800001 -0.029371841 1.0196255e-38 315 264
-0.0048953067 0.69800001 -0.029371841 1.0196255e-38 316 264
-0.0036714801 0.69800001 -0.029371841 9.9196699e-39 317 264
-0.0024476533 0.69800001 -0.029371841 1.0102982e-38 318 264
-0.0012238267 0.69800001 -0.029371841 1.0010787e-38 319 264
0 0.69800001 -0.029371841 9.8274771e-39 320 264
0.0012238267 0.69800001 -0.029371841 9.8274771e-39 321 264
0.0024546667 0.69999999 -0.029455997 9.7356444e-39 322 264
0.0036819996 0.69999999 -0.029455997 9.82784e-39 323 264
0.0049093333 0.69999999 -0.029455997 9.5523293e-39 324 264
0.0061454331 0.70099998 -0.029498078 9.5523293e-39 325 264
0.0073955595 0.70300001 -0.029582238 9.7356416e-39 326 264
0.0086281532 0.70300001 -0.029582238 9.5516091e-39 327 264
0.0098607466 0.70300001 -0.029582238 9.5516147e-39 328 264
0.011109119 0.704 -0.029624319 9.5516147e-39 329 264
0.012343466 0.704 -0.029624319 9.2764669e-39 330 264
0.013577812 0.704 -0.029624319 9.3686639e-39 331 264
0.014854239 0.70599997 -0.029708479 9.2775375e-39 332 264
0.016092092 0.70599997 -0.029708479 9.2775375e-39 333 264
0.017329946 0.70599997 -0.029708479 9.5534027e-39 334 264
0.018594101 0.70700002 -0.029750559 9.645597e-39 335 264
0.01986176 0.708 -0.02979264 9.4630036e-39 336 264
0.021162732 0.70999998 -0.029876797 9.7395905e-39 337 264
0.022439159 0.71100003 -0.029918881 9.6502689e-39 338 264
0.02378572 0.71399999 -0.030045118 1.0110888e-38 339 264
0.025107734 0.71600002 -0.03012928 1.0205594e-38 340 264
0.026363119 0.71600002 -0.03012928 1.0389986e-38 341 264
0.027618507 0.71600002 -0.03012928 1.1588876e-38 342 264
0.028873893 0.71600002 -0.03012928 1.5184505e-38 343 264
-0.040004052 0.713 -0.031253166 1.3155128e-38 288 265
-0.038753927 0.713 -0.031253166 1.2048782e-38 289 265
-0.037503798 0.713 -0.031253166 1.2413244e-38 290 265
-0.036151983 0.71100003 -0.031165501 1.1583844e-38 291 265
-0.034758076 0.708 -0.031034 1.1764282e-38 292 265
-0.033516716 0.708 -0.031034 1.1395499e-38 293 265
-0.032229774 0.70700002 -0.030990168 1.1577022e-38 294 265
-0.030946331 0.70599997 -0.030946331 1.1484826e-38 295 265
-0.029708479 0.70599997 -0.030946331 1.1301161e-38 296 265
-0.028389972 0.704 -0.030858666 1.1393357e-38 297 265
-0.027155625 0.704 -0.030858666 1.1118212e-38 298 265
-0.02592128 0.704 -0.030858666 1.1026016e-38 299 265
-0.024651866 0.70300001 -0.030814834 1.1209328e-38 300 265
-0.023419274 0.70300001 -0.030814834 1.1209328e-38 301 265
-0.02218668 0.70300001 -0.030814834 1.1208607e-38 302 265
-0.020894472 0.70099998 -0.030727165 1.1116411e-38 303 265
-0.019665385 0.70099998 -0.030727165 1.1116414e-38 304 265
-0.018436298 0.70099998 -0.030727165 1.1116414e-38 305 265
-0.017182667 0.69999999 -0.030683333 1.1025294e-38 306 265
-0.015955333 0.69999999 -0.030683333 1.1025294e-38 307 265
-0.014727999 0.69999999 -0.030683333 1.0749424e-38 308 265
-0.013500666 0.69999999 -0.030683333 1.0565392e-38 309 265
-0.012273333 0.69999999 -0.030683333 1.0656155e-38 310 265
-0.011045999 0.69999999 -0.030683333 1.0471763e-38 311 265
-0.0098186666 0.69999999 -0.030683333 1.0378493e-38 312 265
-0.0085913334 0.69999999 -0.030683333 1.0378493e-38 313 265
-0.0073639993 0.69999999 -0.030683333 1.0378493e-38 314 265
-0.0061366665 0.69999999 -0.030683333 1.0286297e-38 315 265
-0.0048953067 0.69800001 -0.030595668 1.0102982e-38 316 265
-0.0036714801 0.69800001 -0.030595668 1.0010787e-38 317 265
-0.0024546667 0.69999999 -0.030683333 1.0102263e-38 318 265
-0.0012273333 0.69999999 -0.030683333 1.0102263e-38 319 265
0 0.69999999 -0.030683333 9.9182336e-39 320 265
0.0012273333 0.69999999 -0.030683333 1.0010069e-38 321 265
0.0024546667 0.69999999 -0.030683333 9.7356444e-39 322 265
0.0036819996 0.69999999 -0.030683333 9.7356444e-39 323 265
0.0049163462 0.70099998 -0.030727165 9.7356416e-39 324 265
0.0061454331 0.70099998 -0.030727165 9.7356416e-39 325 265
0.0073955595 0.70300001 -0.030814834 9.5519678e-39 326 265
0.0086281532 0.70300001 -0.030814834 9.4597736e-39 327 265
0.0098747732 0.704 -0.030858666 9.4594162e-39 328 265
0.011109119 0.704 -0.030858666 9.4594162e-39 329 265
0.012343466 0.704 -0.030858666 9.4601351e-39 330 265
0.013577812 0.704 -0.030858666 9.5523321e-39 331 265
0.014854239 0.70599997 -0.030946331 9.2775375e-39 332 265
0.016092092 0.70599997 -0.030946331 9.4622875e-39 333 265
0.017354494 0.70700002 -0.030990168 9.5544803e-39 334 265
0.018594101 0.70700002 -0.030990168 9.7385115e-39 335 265
0.01986176 0.708 -0.031034 9.4640854e-39 336 265
0.021162732 0.70999998 -0.031121666 9.8325092e-39 337 265
0.022439159 0.71100003 -0.031165501 9.9268558e-39 338 265
0.023685781 0.71100003 -0.031165501 1.0295638e-38 339 265
0.025107734 0.71600002 -0.031384666 1.0390339e-38 340 265
0.026363119 0.71600002 -0.031384666 1.0021197e-38 341 265
0.027618507 0.71600002 -0.031384666 1.1959456e-38 342 265
-0.040004052 0.713 -0.032503292 1.3434956e-38 288 266
-0.038753927 0.713 -0.032503292 1.1775435e-38 289 266
-0.037503798 0.713 -0.032503292 1.2781298e-38 290 266
-0.036151983 0.71100003 -0.032412119 1.2135929e-38 291 266
-0.034758076 0.708 -0.03227536 1.2133049e-38 292 266
-0.033516716 0.708 -0.03227536 1.1856106e-38 293 266
-0.032229774 0.70700002 -0.032229774 1.1852882e-38 294 266
-0.030946331 0.70599997 -0.032184184 1.1852882e-38 295 266
-0.029708479 0.70599997 -0.032184184 1.1576303e-38 296 266
-0.028389972 0.704 -0.032093015 1.1576303e-38 297 266
-0.027155625 0.704 -0.032093015 1.1301158e-38 298 266
-0.025884461 0.70300001 -0.032047424 1.1301158e-38 299 266
-0.024651866 0.70300001 -0.032047424 1.1392275e-38 300 266
-0.023419274 0.70300001 -0.032047424 1.1300079e-38 301 266
-0.02218668 0.70300001 -0.032047424 1.1300079e-38 302 266
-0.020954086 0.70300001 -0.032047424 1.1300079e-38 303 266
-0.019721493 0.70300001 -0.032047424 1.1024215e-38 304 266
-0.018436298 0.70099998 -0.031956252 1.1116411e-38 305 266
-0.017182667 0.69999999 -0.031910665 1.0933818e-38 306 266
-0.015955333 0.69999999 -0.031910665 1.0841622e-38 307 266
-0.014727999 0.69999999 -0.031910665 1.074907e-38 308 266
-0.013500666 0.69999999 -0.031910665 1.0472842e-38 309 266
-0.012273333 0.69999999 -0.031910665 1.0746552e-38 310 266
-0.011045999 0.69999999 -0.031910665 1.0654357e-38 311 266
-0.0098186666 0.69999999 -0.031910665 1.0470326e-38 312 266
-0.0085913334 0.69999999 -0.031910665 1.037813e-38 313 266
-0.0073639993 0.69999999 -0.031910665 1.0285934e-38 314 266
-0.0061366665 0.69999999 -0.031910665 1.0285934e-38 315 266
-0.0049093333 0.69999999 -0.031910665 1.0010787e-38 316 266
-0.0036819996 0.69999999 -0.031910665 1.0010787e-38 317 266
-0.0024546667 0.69999999 -0.031910665 1.0011145e-38 318 266
-0.0012273333 0.69999999 -0.031910665 1.0011145e-38 319 266
0 0.69999999 -0.031910665 9.9185923e-39 320 266
0.0012273333 0.69999999 -0.031910665 9.9185923e-39 321 266
0.0024546667 0.69999999 -0.031910665 9.7349213e-39 322 266
0.0036819996 0.69999999 -0.031910665 9.8274771e-39 323 266
0.0049163462 0.70099998 -0.031956252 9.460491e-39 324 266
0.0061629666 0.70300001 -0.032047424 9.5526853e-39 325 266
0.0073955595 0.70300001 -0.032047424 9.5519678e-39 326 266
0.0086404262 0.704 -0.032093015 9.4597736e-39 327 266
0.0098747732 0.704 -0.032093015 9.4601323e-39 328 266
0.011109119 0.704 -0.032093015 9.5526853e-39 329 266
0.012343466 0.704 -0.032093015 9.4601323e-39 330 266
0.013616386 0.70599997 -0.032184184 9.5526853e-39 331 266
0.014854239 0.70599997 -0.032184184 9.369373e-39 332 266
0.016092092 0.70599997 -0.032184184 9.5534027e-39 333 266
0.017354494 0.70700002 -0.032229774 9.4630036e-39 334 266
0.0186204 0.708 -0.03227536 9.7395905e-39 335 266
0.01986176 0.708 -0.03227536 9.649913e-39 336 266
0.021162732 0.70999998 -0.032366529 9.8346629e-39 337 266
0.022439159 0.71100003 -0.032412119 1.0110888e-38 338 266
0.023685781 0.71100003 -0.032412119 1.0572225e-38 339 266
0.025107734 0.71600002 -0.032640055 1.0483251e-38 340 266
0.026363119 0.71600002 -0.032640055 1.0206663e-38 341 266
0.027618507 0.71600002 -0.032640055 1.2880333e-38 342 266
-0.040004052 0.713 -0.033753417 1.4084644e-38 288 267
-0.038753927 0.713 -0.033753417 1.1410971e-38 289 267
-0.037503798 0.713 -0.033753417 1.2690551e-38 290 267
-0.036253672 0.713 -0.033753417 1.1952986e-38 291 267
-0.034856264 0.70999998 -0.033611398 1.1859354e-38 292 267
-0.033516716 0.708 -0.033516716 1.130618e-38 293 267
-0.03227536 0.708 -0.033516716 1.1671014e-38 294 267
-0.030990168 0.70700002 -0.033469379 1.1486623e-38 295 267
-0.029708479 0.70599997 -0.033422034 1.1577386e-38 296 267
-0.028389972 0.704 -0.03332736 1.1393354e-38 297 267
-0.027155625 0.704 -0.03332736 1.1394077e-38 298 267
-0.025884461 0.70300001 -0.033280019 1.130188e-38 299 267
-0.024651866 0.70300001 -0.033280019 1.1209681e-38 300 267
-0.023419274 0.70300001 -0.033280019 1.1209681e-38 301 267
-0.02218668 0.70300001 -0.033280019 1.1208963e-38 302 267
-0.020954086 0.70300001 -0.033280019 1.1208963e-38 303 267
-0.019721493 0.70300001 -0.033280019 1.0933096e-38 304 267
-0.018436298 0.70099998 -0.03318534 1.0933096e-38 305 267
-0.017207211 0.70099998 -0.03318534 1.0933452e-38 306 267
-0.015955333 0.69999999 -0.033137999 1.0841256e-38 307 267
-0.014727999 0.69999999 -0.033137999 1.0749058e-38 308 267
-0.013500666 0.69999999 -0.033137999 1.0564669e-38 309 267
-0.012273333 0.69999999 -0.033137999 1.0563593e-38 310 267
-0.011045999 0.69999999 -0.033137999 1.0379205e-38 311 267
-0.0098186666 0.69999999 -0.033137999 1.0377774e-38 312 267
-0.0085913334 0.69999999 -0.033137999 1.0377774e-38 313 267
-0.0073639993 0.69999999 -0.033137999 1.0102263e-38 314 267
-0.0061366665 0.69999999 -0.033137999 1.0102263e-38 315 267
-0.0049093333 0.69999999 -0.033137999 1.0011145e-38 316 267
-0.0036819996 0.69999999 -0.033137999 1.0011145e-38 317 267
-0.0024546667 0.69999999 -0.033137999 9.8274743e-39 318 267
-0.0012273333 0.69999999 -0.033137999 9.8274743e-39 319 267
0 0.69999999 -0.033137999 9.8274743e-39 320 267
0.0012273333 0.69999999 -0.033137999 9.7352801e-39 321 267
0.0024546667 0.69999999 -0.033137999 9.7352801e-39 322 267
0.0036872597 0.70099998 -0.03318534 9.8274743e-39 323 267
0.0049163462 0.70099998 -0.03318534 9.5534027e-39 324 267
0.0061629666 0.70300001 -0.033280019 9.5534027e-39 325 267
0.0074060797 0.704 -0.03332736 9.460491e-39 326 267
0.0086404262 0.704 -0.03332736 9.460491e-39 327 267
0.0099028256 0.70599997 -0.033422034 9.27682e-39 328 267
0.011140679 0.70599997 -0.033422034 9.3690171e-39 329 267
0.012378532 0.70599997 -0.033422034 9.3697331e-39 330 267
0.013616386 0.70599997 -0.033422034 9.3697331e-39 331 267
0.01487528 0.70700002 -0.033469379 9.5534041e-39 332 267
0.01613768 0.708 -0.033516716 9.7377954e-39 333 267
0.017428132 0.70999998 -0.033611398 9.4637294e-39 334 267
0.018672999 0.70999998 -0.033611398 9.7403163e-39 335 267
0.019917866 0.70999998 -0.033611398 9.8335839e-39 336 267
0.021192541 0.71100003 -0.033658739 1.0110171e-38 337 267
0.022439159 0.71100003 -0.033658739 1.0387834e-38 338 267
0.023685781 0.71100003 -0.033658739 1.0572225e-38 339 267
0.025107734 0.71600002 -0.03389544 1.0850592e-38 340 267
0.026363119 0.71600002 -0.03389544 1.1219373e-38 341 267
-0.038808275 0.71399999 -0.035052639 1.1320936e-38 289 268
-0.037556399 0.71399999 -0.035052639 1.2599785e-38 290 268
-0.036304519 0.71399999 -0.035052639 1.204697e-38 291 268
-0.034856264 0.70999998 -0.034856264 1.2135212e-38 292 268
-0.033516716 0.708 -0.034758076 1.1674236e-38 293 268
-0.03227536 0.708 -0.034758076 1.1855398e-38 294 268
-0.030990168 0.70700002 -0.034708988 1.1671367e-38 295 268
-0.029750559 0.70700002 -0.034708988 1.1486623e-38 296 268
-0.028470624 0.70599997 -0.034659892 1.1486623e-38 297 268
-0.027155625 0.704 -0.034561705 1.1211115e-38 298 268
-0.02592128 0.704 -0.034561705 1.1211115e-38 299 268
-0.024686933 0.704 -0.034561705 1.1301874e-38 300 268
-0.023419274 0.70300001 -0.034512613 1.1209679e-38 301 268
-0.02218668 0.70300001 -0.034512613 1.1209679e-38 302 268
-0.020983893 0.704 -0.034561705 1.1025648e-38 303 268
-0.019749546 0.704 -0.034561705 1.1025645e-38 304 268
-0.018488899 0.70300001 -0.034512613 1.1025645e-38 305 268
-0.017256306 0.70300001 -0.034512613 1.084197e-38 306 268
-0.015978126 0.70099998 -0.034414422 1.0749775e-38 307 268
-0.014749039 0.70099998 -0.034414422 1.0565746e-38 308 268
-0.013519952 0.70099998 -0.034414422 1.0473551e-38 309 268
-0.012290866 0.70099998 -0.034414422 1.0564311e-38 310 268
-0.011061779 0.70099998 -0.034414422 1.0288087e-38 311 268
-0.0098186666 0.69999999 -0.034365334 1.0195537e-38 312 268
-0.0085913334 0.69999999 -0.034365334 1.0195537e-38 313 268
-0.0073639993 0.69999999 -0.034365334 1.0102982e-38 314 268
-0.0061366665 0.69999999 -0.034365334 1.0010787e-38 315 268
-0.0049093333 0.69999999 -0.034365334 9.9200272e-39 316 268
-0.0036819996 0.69999999 -0.034365334 9.9200272e-39 317 268
-0.0024546667 0.69999999 -0.034365334 9.6448795e-39 318 268
-0.0012273333 0.69999999 -0.034365334 9.5526853e-39 319 268
0 0.69999999 -0.034365334 1.0011145e-38 320 268
0.0012290865 0.70099998 -0.034414422 1.0011145e-38 321 268
0.0024581731 0.70099998 -0.034414422 9.7359975e-39 322 268
0.0036872597 0.70099998 -0.034414422 9.8281918e-39 323 268
0.0049163462 0.70099998 -0.034414422 9.6452382e-39 324 268
0.0061629666 0.70300001 -0.034512613 9.5526853e-39 325 268
0.0074060797 0.704 -0.034561705 9.460491e-39 326 268
0.0086404262 0.704 -0.034561705 9.5526853e-39 327 268
0.0099028256 0.70599997 -0.034659892 9.2775375e-39 328 268
0.011140679 0.70599997 -0.034659892 9.3697331e-39 329 268
0.012378532 0.70599997 -0.034659892 9.4622875e-39 330 268
0.013635674 0.70700002 -0.034708988 9.4622875e-39 331 268
0.01487528 0.70700002 -0.034708988 9.5544831e-39 332 268
0.01613768 0.708 -0.034758076 9.7385143e-39 333 268
0.017428132 0.70999998 -0.034856264 9.6473976e-39 334 268
0.018672999 0.70999998 -0.034856264 1.0015821e-38 335 268
0.01994592 0.71100003 -0.034905359 9.9254236e-39 336 268
0.021192541 0.71100003 -0.034905359 1.0202371e-38 337 268
0.022439159 0.71100003 -0.034905359 1.0204885e-38 338 268
0.023685781 0.71100003 -0.034905359 1.0573667e-38 339 268
0.024932399 0.71100003 -0.034905359 1.0850241e-38 340 268
-0.037556399 0.71399999 -0.036304519 1.2415043e-38 290 269
-0.036304519 0.71399999 -0.036304519 1.1954065e-38 291 269
-0.035003547 0.713 -0.036253672 1.2135578e-38 292 269
-0.033658739 0.71100003 -0.036151983 1.1582406e-38 293 269
-0.03227536 0.708 -0.03599944 1.1765358e-38 294 269
-0.031034 0.708 -0.03599944 1.1488771e-38 295 269
-0.029750559 0.70700002 -0.035948593 1.1579891e-38 296 269
-0.028470624 0.70599997 -0.035897743 1.1487695e-38 297 269
-0.027155625 0.704 -0.035796054 1.1395146e-38 298 269
-0.02592128 0.704 -0.035796054 1.1211115e-38 299 269
-0.024686933 0.704 -0.035796054 1.1394427e-38 300 269
-0.023452586 0.704 -0.035796054 1.130223e-38 301 269
-0.022218239 0.704 -0.035796054 1.102672e-38 302 269
-0.020983893 0.704 -0.035796054 1.1118915e-38 303 269
-0.019749546 0.704 -0.035796054 1.0843404e-38 304 269
-0.018515198 0.704 -0.035796054 1.075121e-38 305 269
-0.017256306 0.70300001 -0.035745207 1.075121e-38 306 269
-0.016023712 0.70300001 -0.035745207 1.0659016e-38 307 269
-0.014749039 0.70099998 -0.035643511 1.0750134e-38 308 269
-0.013519952 0.70099998 -0.035643511 1.0750134e-38 309 269
-0.012290866 0.70099998 -0.035643511 1.0656864e-38 310 269
-0.011061779 0.70099998 -0.035643511 1.0564669e-38 311 269
-0.0098326923 0.70099998 -0.035643511 1.0196251e-38 312 269
-0.0086036054 0.70099998 -0.035643511 1.0196251e-38 313 269
-0.0073745195 0.70099998 -0.035643511 1.0195534e-38 314 269
-0.0061454331 0.70099998 -0.035643511 1.010334e-38 315 269
-0.0049163462 0.70099998 -0.035643511 9.8285505e-39 316 269
-0.0036872597 0.70099998 -0.035643511 9.9207447e-39 317 269
-0.0024581731 0.70099998 -0.035643511 9.7374325e-39 318 269
-0.0012273333 0.69999999 -0.035592664 9.7374325e-39 319 269
0 0.69999999 -0.035592664 9.8285505e-39 320 269
0.0012290865 0.70099998 -0.035643511 9.7363563e-39 321 269
0.0024581731 0.70099998 -0.035643511 9.7363563e-39 322 269
0.0036872597 0.70099998 -0.035643511 9.8289092e-39 323 269
0.0049303733 0.70300001 -0.035745207 9.7374325e-39 324 269
0.0061629666 0.70300001 -0.035745207 9.6452382e-39 325 269
0.0074060797 0.704 -0.035796054 9.369373e-39 326 269
0.0086649731 0.70599997 -0.035897743 9.645597e-39 327 269
0.0099028256 0.70599997 -0.035897743 9.3697331e-39 328 269
0.011140679 0.70599997 -0.035897743 9.3697331e-39 329 269
0.012378532 0.70599997 -0.035897743 9.4619316e-39 330 269
0.013635674 0.70700002 -0.035948593 9.4619316e-39 331 269
0.014938398 0.70999998 -0.036101133 9.5548489e-39 332 269
0.016183265 0.70999998 -0.036101133 9.6470445e-39 333 269
0.017428132 0.70999998 -0.036101133 9.8317931e-39 334 269
0.018672999 0.70999998 -0.036101133 1.010802e-38 335 269
0.01994592 0.71100003 -0.036151983 1.0017975e-38 336 269
0.021192541 0.71100003 -0.036151983 1.0478953e-38 337 269
0.022439159 0.71100003 -0.036151983 1.038963e-38 338 269
0.023685781 0.71100003 -0.036151983 1.057402e-38 339 269
0.024932399 0.71100003 -0.036151983 1.1033551e-38 340 269
-0.036304519 0.71399999 -0.037556399 1.1495964e-38 291 270
-0.035003547 0.713 -0.037503798 1.2137733e-38 292 270
-0.033658739 0.71100003 -0.037398599 1.158456e-38 293 270
-0.03227536 0.708 -0.0372408 1.1674957e-38 294 270
-0.031034 0.708 -0.0372408 1.1490565e-38 295 270
-0.02979264 0.708 -0.0372408 1.1488774e-38 296 270
-0.028510952 0.70700002 -0.037188202 1.1211828e-38 297 270
-0.027232772 0.70599997 -0.037135597 1.1211112e-38 298 270
-0.02592128 0.704 -0.037030395 1.1211112e-38 299 270
-0.024686933 0.704 -0.037030395 1.1394427e-38 300 270
-0.023452586 0.704 -0.037030395 1.1394427e-38 301 270
-0.022218239 0.704 -0.037030395 1.130223e-38 302 270
-0.021043506 0.70599997 -0.037135597 1.130223e-38 303 270
-0.019749546 0.704 -0.037030395 1.1026364e-38 304 270
-0.018515198 0.704 -0.037030395 1.0934168e-38 305 270
-0.017280852 0.704 -0.037030395 1.0934524e-38 306 270
-0.016023712 0.70300001 -0.036977798 1.084197e-38 307 270
-0.014791119 0.70300001 -0.036977798 1.0750134e-38 308 270
-0.013558527 0.70300001 -0.036977798 1.0750134e-38 309 270
-0.012325933 0.70300001 -0.036977798 1.0474269e-38 310 270
-0.011061779 0.70099998 -0.036872596 1.0381716e-38 311 270
-0.0098326923 0.70099998 -0.036872596 1.0381e-38 312 270
-0.0086036054 0.70099998 -0.036872596 1.0288445e-38 313 270
-0.0073745195 0.70099998 -0.036872596 1.019661e-38 314 270
-0.0061454331 0.70099998 -0.036872596 1.0104416e-38 315 270
-0.0049163462 0.70099998 -0.036872596 9.9200272e-39 316 270
-0.0036872597 0.70099998 -0.036872596 1.0104057e-38 317 270
-0.0024581731 0.70099998 -0.036872596 9.7374325e-39 318 270
-0.0012290865 0.70099998 -0.036872596 9.7374325e-39 319 270
0 0.70099998 -0.036872596 9.920386e-39 320 270
0.0012290865 0.70099998 -0.036872596 9.920386e-39 321 270
0.0024581731 0.70099998 -0.036872596 9.9211034e-39 322 270
0.0036872597 0.70099998 -0.036872596 9.9211034e-39 323 270
0.0049303733 0.70300001 -0.036977798 9.7374325e-39 324 270
0.0061717331 0.704 -0.037030395 9.7374325e-39 325 270
0.0074060797 0.704 -0.037030395 9.5534027e-39 326 270
0.0086649731 0.70599997 -0.037135597 9.5534027e-39 327 270
0.0099028256 0.70599997 -0.037135597 9.1864209e-39 328 270
0.011140679 0.70599997 -0.037135597 9.370452e-39 329 270
0.012396066 0.70700002 -0.037188202 9.4630064e-39 330 270
0.013693533 0.70999998 -0.037345998 9.4630064e-39 331 270
0.014938398 0.70999998 -0.037345998 9.4637294e-39 332 270
0.016183265 0.70999998 -0.037345998 9.7403163e-39 333 270
0.01745268 0.71100003 -0.037398599 9.8325092e-39 334 270
0.0186993 0.71100003 -0.037398599 1.0017259e-38 335 270
0.01994592 0.71100003 -0.037398599 1.0110171e-38 336 270
0.021252153 0.713 -0.037503798 1.0571149e-38 337 270
0.022439159 0.71100003 -0.037398599 1.0481102e-38 338 270
0.023685781 0.71100003 -0.037398599 1.1126471e-38 339 270
0.025212931 0.71899998 -0.037819397 1.2141699e-38 340 270
0.02647358 0.71899998 -0.037819397 1.7119904e-38 341 270
-0.036253672 0.713 -0.038753927 1.094603e-38 291 271
-0.035003547 0.713 -0.038753927 1.2137365e-38 292 271
-0.033753417 0.713 -0.038753927 1.1860777e-38 293 271
-0.032366529 0.70999998 -0.038590867 1.1858623e-38 294 271
-0.031034 0.708 -0.038482159 1.1582395e-38 295 271
-0.02979264 0.708 -0.038482159 1.1396575e-38 296 271
-0.02855128 0.708 -0.038482159 1.1212184e-38 297 271
-0.027271347 0.70700002 -0.038427804 1.148662e-38 298 271
-0.025994917 0.70599997 -0.038373452 1.1394424e-38 299 271
-0.024757065 0.70599997 -0.038373452 1.1393707e-38 300 271
-0.023519212 0.70599997 -0.038373452 1.1393707e-38 301 271
-0.022281358 0.70599997 -0.038373452 1.1301509e-38 302 271
-0.021043506 0.70599997 -0.038373452 1.1209313e-38 303 271
-0.019805651 0.70599997 -0.038373452 1.102672e-38 304 271
-0.018515198 0.704 -0.038264744 1.102672e-38 305 271
-0.017280852 0.704 -0.038264744 1.0934522e-38 306 271
-0.016046507 0.704 -0.038264744 1.0934522e-38 307 271
-0.014791119 0.70300001 -0.038210396 1.0842328e-38 308 271
-0.013558527 0.70300001 -0.038210396 1.0750134e-38 309 271
-0.012325933 0.70300001 -0.038210396 1.0474269e-38 310 271
-0.01109334 0.70300001 -0.038210396 1.0382075e-38 311 271
-0.0098607466 0.70300001 -0.038210396 1.0381716e-38 312 271
-0.0086281532 0.70300001 -0.038210396 1.0197686e-38 313 271
-0.0073955595 0.70300001 -0.038210396 1.0472116e-38 314 271
-0.0061629666 0.70300001 -0.038210396 1.0288087e-38 315 271
-0.0049303733 0.70300001 -0.038210396 1.0104057e-38 316 271
-0.0036977797 0.70300001 -0.038210396 9.9200272e-39 317 271
-0.0024651866 0.70300001 -0.038210396 9.9207447e-39 318 271
-0.0012325933 0.70300001 -0.038210396 9.8285505e-39 319 271
0 0.70300001 -0.038210396 9.8289092e-39 320 271
0.0012325933 0.70300001 -0.038210396 9.8289092e-39 321 271
0.0024651866 0.70300001 -0.038210396 9.9214622e-39 322 271
0.0036977797 0.70300001 -0.038210396 9.9214622e-39 323 271
0.0049373866 0.704 -0.038264744 9.7374325e-39 324 271
0.0061717331 0.704 -0.038264744 9.7374325e-39 325 271
0.0074271196 0.70599997 -0.038373452 9.7370737e-39 326 271
0.0086649731 0.70599997 -0.038373452 9.7370737e-39 327 271
0.0099308798 0.708 -0.038482159 9.4622847e-39 328 271
0.01117224 0.708 -0.038482159 9.5544803e-39 329 271
0.012448666 0.70999998 -0.038590867 9.5551992e-39 330 271
0.013693533 0.70999998 -0.038590867 9.6473948e-39 331 271
0.014959441 0.71100003 -0.038645219 9.4648042e-39 332 271
0.01620606 0.71100003 -0.038645219 9.6491969e-39 333 271
0.01745268 0.71100003 -0.038645219 9.7421114e-39 334 271
0.0186993 0.71100003 -0.038645219 9.834307e-39 335 271
0.020002026 0.713 -0.038753927 1.0110891e-38 336 271
0.021281958 0.71399999 -0.038808275 1.0480032e-38 337 271
0.022596961 0.71600002 -0.038916986 1.0664048e-38 338 271
0.02388566 0.71700001 -0.038971342 1.2323571e-38 339 271
0.025212931 0.71899998 -0.039080046 1.2978294e-38 340 271
-0.035003547 0.713 -0.040004052 1.1860058e-38 292 272
-0.033753417 0.713 -0.040004052 1.1860058e-38 293 272
-0.032366529 0.70999998 -0.039835732 1.1859351e-38 294 272
-0.031034 0.708 -0.039723519 1.149021e-38 295 272
-0.02979264 0.708 -0.039723519 1.1488777e-38 296 272
-0.02855128 0.708 -0.039723519 1.1396222e-38 297 272
-0.027271347 0.70700002 -0.039667413 1.1395146e-38 298 272
-0.02603174 0.70700002 -0.039667413 1.1395146e-38 299 272
-0.024792133 0.70700002 -0.039667413 1.1118915e-38 300 272
-0.023519212 0.70599997 -0.039611302 1.1118915e-38 301 272
-0.022281358 0.70599997 -0.039611302 1.1210029e-38 302 272
-0.021073313 0.70700002 -0.039667413 1.1210029e-38 303 272
-0.019805651 0.70599997 -0.039611302 1.1026717e-38 304 272
-0.018567799 0.70599997 -0.039611302 1.1026717e-38 305 272
-0.017329946 0.70599997 -0.039611302 1.0843404e-38 306 272
-0.016046507 0.704 -0.039499093 1.075121e-38 307 272
-0.014812159 0.704 -0.039499093 1.0842328e-38 308 272
-0.013577812 0.704 -0.039499093 1.0750134e-38 309 272
-0.012343466 0.704 -0.039499093 1.0749775e-38 310 272
-0.011109119 0.704 -0.039499093 1.0473551e-38 311 272
-0.0098747732 0.704 -0.039499093 1.0380998e-38 312 272
-0.0086281532 0.70300001 -0.039442986 1.0380998e-38 313 272
-0.0073955595 0.70300001 -0.039442986 1.0288445e-38 314 272
-0.0061629666 0.70300001 -0.039442986 1.0104057e-38 315 272
-0.0049303733 0.70300001 -0.039442986 9.9200272e-39 316 272
-0.0036977797 0.70300001 -0.039442986 9.9200272e-39 317 272
-0.0024651866 0.70300001 -0.039442986 9.9200272e-39 318 272
-0.0012325933 0.70300001 -0.039442986 1.0104057e-38 319 272
0 0.70300001 -0.039442986 9.8285505e-39 320 272
0.0012325933 0.70300001 -0.039442986 9.9207447e-39 321 272
0.0024686933 0.704 -0.039499093 9.7374325e-39 322 272
0.0037030398 0.704 -0.039499093 9.9214622e-39 323 272
0.0049373866 0.704 -0.039499093 9.9214622e-39 324 272
0.0061892662 0.70599997 -0.039611302 9.9214622e-39 325 272
0.0074271196 0.70599997 -0.039611302 9.7377926e-39 326 272
0.008677247 0.70700002 -0.039667413 9.7377926e-39 327 272
0.0099308798 0.708 -0.039723519 9.5544803e-39 328 272
0.011203799 0.70999998 -0.039835732 9.7385115e-39 329 272
0.012448666 0.70999998 -0.039835732 9.4640826e-39 330 272
0.013693533 0.70999998 -0.039835732 9.6481137e-39 331 272
0.014959441 0.71100003 -0.039891839 9.5577201e-39 332 272
0.01620606 0.71100003 -0.039891839 9.7421114e-39 333 272
0.01745268 0.71100003 -0.039891839 9.7421114e-39 334 272
0.018751899 0.713 -0.040004052 1.0110894e-38 335 272
0.020030079 0.71399999 -0.040060159 1.0295282e-38 336 272
0.021341572 0.71600002 -0.040172372 1.0480032e-38 337 272
0.02262852 0.71700001 -0.040228479 1.0849888e-38 338 272
0.023952285 0.71899998 -0.040340692 1.4076735e-38 339 272
0.025248 0.72000003 -0.040396802 1.3812743e-38 340 272
-0.035052639 0.71399999 -0.041312039 1.213521e-38 292 273
-0.033800758 0.71399999 -0.041312039 1.2227764e-38 293 273
-0.032412119 0.71100003 -0.041138459 1.2225613e-38 294 273
-0.031121666 0.70999998 -0.041080594 1.1856831e-38 295 273
-0.02979264 0.708 -0.040964879 1.1672442e-38 296 273
-0.02855128 0.708 -0.040964879 1.1579888e-38 297 273
-0.027309919 0.708 -0.040964879 1.148662e-38 298 273
-0.02603174 0.70700002 -0.040907022 1.1394424e-38 299 273
-0.024792133 0.70700002 -0.040907022 1.139478e-38 300 273
-0.023552528 0.70700002 -0.040907022 1.1210029e-38 301 273
-0.022312919 0.70700002 -0.040907022 1.1210029e-38 302 273
-0.021073313 0.70700002 -0.040907022 1.1210029e-38 303 273
-0.019833706 0.70700002 -0.040907022 1.1026717e-38 304 273
-0.018567799 0.70599997 -0.040849157 1.1026717e-38 305 273
-0.017329946 0.70599997 -0.040849157 1.0934522e-38 306 273
-0.016046507 0.704 -0.040733438 1.0934522e-38 307 273
-0.014812159 0.704 -0.040733438 1.0841611e-38 308 273
-0.013577812 0.704 -0.040733438 1.0749417e-38 309 273
-0.012343466 0.704 -0.040733438 1.0749417e-38 310 273
-0.011109119 0.704 -0.040733438 1.0657222e-38 311 273
-0.0098747732 0.704 -0.040733438 1.0473551e-38 312 273
-0.0086404262 0.704 -0.040733438 1.0380998e-38 313 273
-0.0074060797 0.704 -0.040733438 1.0288804e-38 314 273
-0.0061717331 0.704 -0.040733438 1.019661e-38 315 273
-0.0049373866 0.704 -0.040733438 1.0195534e-38 316 273
-0.0037030398 0.704 -0.040733438 1.0195534e-38 317 273
-0.0024686933 0.704 -0.040733438 9.9207447e-39 318 273
-0.0012343467 0.704 -0.040733438 9.9207447e-39 319 273
0 0.704 -0.040733438 9.8285505e-39 320 273
0.0012343467 0.704 -0.040733438 9.9207447e-39 321 273
0.0024686933 0.704 -0.040733438 9.9214622e-39 322 273
0.0037030398 0.704 -0.040733438 9.9214622e-39 323 273
0.0049514128 0.70599997 -0.040849157 9.9214622e-39 324 273
0.0061980332 0.70700002 -0.040907022 9.9214622e-39 325 273
0.0074376399 0.70700002 -0.040907022 9.7381499e-39 326 273
0.008689519 0.708 -0.040964879 9.7381499e-39 327 273
0.0099589331 0.70999998 -0.041080594 9.5544803e-39 328 273
0.011203799 0.70999998 -0.041080594 9.7385115e-39 329 273
0.0124662 0.71100003 -0.041138459 9.6473976e-39 330 273
0.01371282 0.71100003 -0.041138459 9.8317903e-39 331 273
0.014959441 0.71100003 -0.041138459 9.649913e-39 332 273
0.016251646 0.713 -0.041254178 9.7424673e-39 333 273
0.017501773 0.713 -0.041254178 9.8350259e-39 334 273
0.018751899 0.713 -0.041254178 1.0019777e-38 335 273
0.020086186 0.71600002 -0.041427758 1.029708e-38 336 273
0.021371379 0.71700001 -0.041485619 1.0850254e-38 337 273
0.02262852 0.71700001 -0.041485619 1.1129715e-38 338 273
0.023952285 0.71899998 -0.041601337 1.4909736e-38 339 273
-0.033611398 0.70999998 -0.042325463 1.1309052e-38 293 274
-0.032366529 0.70999998 -0.042325463 1.2044813e-38 294 274
-0.031121666 0.70999998 -0.042325463 1.1399444e-38 295 274
-0.029876797 0.70999998 -0.042325463 1.1672808e-38 296 274
-0.02855128 0.708 -0.042206239 1.1396222e-38 297 274
-0.027309919 0.708 -0.042206239 1.139479e-38 298 274
-0.026068559 0.708 -0.042206239 1.139479e-38 299 274
-0.024792133 0.70700002 -0.042146627 1.130223e-38 300 274
-0.023552528 0.70700002 -0.042146627 1.1210035e-38 301 274
-0.022312919 0.70700002 -0.042146627 1.1026001e-38 302 274
-0.021103119 0.708 -0.042206239 1.1210032e-38 303 274
-0.019833706 0.70700002 -0.042146627 1.0843407e-38 304 274
-0.018594101 0.70700002 -0.042146627 1.0750853e-38 305 274
-0.017329946 0.70599997 -0.042087011 1.0841972e-38 306 274
-0.016092092 0.70599997 -0.042087011 1.0749777e-38 307 274
-0.014854239 0.70599997 -0.042087011 1.0841252e-38 308 274
-0.013616386 0.70599997 -0.042087011 1.0749058e-38 309 274
-0.012378532 0.70599997 -0.042087011 1.0565746e-38 310 274
-0.011140679 0.70599997 -0.042087011 1.0565746e-38 311 274
-0.0099028256 0.70599997 -0.042087011 1.0290598e-38 312 274
-0.0086649731 0.70599997 -0.042087011 1.0106209e-38 313 274
-0.0074060797 0.704 -0.041967787 1.019661e-38 314 274
-0.0061717331 0.704 -0.041967787 1.019661e-38 315 274
-0.0049373866 0.704 -0.041967787 1.0104057e-38 316 274
-0.0037030398 0.704 -0.041967787 1.0104057e-38 317 274
-0.0024686933 0.704 -0.041967787 9.7374325e-39 318 274
-0.0012343467 0.704 -0.041967787 9.6452382e-39 319 274
0 0.704 -0.041967787 9.8285505e-39 320 274
0.0012343467 0.704 -0.041967787 9.9207447e-39 321 274
0.0024686933 0.704 -0.041967787 9.7381499e-39 322 274
0.0037135598 0.70599997 -0.042087011 9.8303441e-39 323 274
0.0049584266 0.70700002 -0.042146627 9.7381499e-39 324 274
0.0062067998 0.708 -0.042206239 9.8303441e-39 325 274
0.0074481601 0.708 -0.042206239 9.5544831e-39 326 274
0.0087140659 0.70999998 -0.042325463 9.5544831e-39 327 274
0.0099589331 0.70999998 -0.042325463 9.5544831e-39 328 274
0.011203799 0.70999998 -0.042325463 9.7385143e-39 329 274
0.0124662 0.71100003 -0.042385083 9.7395933e-39 330 274
0.01371282 0.71100003 -0.042385083 1.0015821e-38 331 274
0.015001519 0.713 -0.042504307 9.6506346e-39 332 274
0.016251646 0.713 -0.042504307 9.9272229e-39 333 274
0.017501773 0.713 -0.042504307 1.0020493e-38 334 274
0.018751899 0.713 -0.042504307 1.029708e-38 335 274
0.020114239 0.71700001 -0.042742759 1.0573667e-38 336 274
0.021371379 0.71700001 -0.042742759 1.2140993e-38 337 274
0.02262852 0.71700001 -0.042742759 1.2059953e-38 338 274
-0.032366529 0.70999998 -0.043570329 1.2043006e-38 294 275
-0.031121666 0.70999998 -0.043570329 1.2043006e-38 295 275
-0.029876797 0.70999998 -0.043570329 1.1674241e-38 296 275
-0.028631933 0.70999998 -0.043570329 1.1305099e-38 297 275
-0.027387066 0.70999998 -0.043570329 1.1486623e-38 298 275
-0.026068559 0.708 -0.043447599 1.1394427e-38 299 275
-0.024827199 0.708 -0.043447599 1.1393704e-38 300 275
-0.023585839 0.708 -0.043447599 1.1301509e-38 301 275
-0.022344479 0.708 -0.043447599 1.1301864e-38 302 275
-0.021103119 0.708 -0.043447599 1.1301864e-38 303 275
-0.01986176 0.708 -0.043447599 1.1026717e-38 304 275
-0.0186204 0.708 -0.043447599 1.0934522e-38 305 275
-0.017354494 0.70700002 -0.043386232 1.084197e-38 306 275
-0.016114887 0.70700002 -0.043386232 1.084197e-38 307 275
-0.01487528 0.70700002 -0.043386232 1.0933805e-38 308 275
-0.013635674 0.70700002 -0.043386232 1.0841611e-38 309 275
-0.012396066 0.70700002 -0.043386232 1.0749058e-38 310 275
-0.011140679 0.70599997 -0.043324865 1.0656864e-38 311 275
-0.0099028256 0.70599997 -0.043324865 1.0473551e-38 312 275
-0.0086649731 0.70599997 -0.043324865 1.0473551e-38 313 275
-0.0074271196 0.70599997 -0.043324865 1.0380998e-38 314 275
-0.0061892662 0.70599997 -0.043324865 1.0288804e-38 315 275
-0.0049514128 0.70599997 -0.043324865 1.0013298e-38 316 275
-0.0037135598 0.70599997 -0.043324865 9.9207447e-39 317 275
-0.0024686933 0.704 -0.043202132 9.7377912e-39 318 275
-0.0012343467 0.704 -0.043202132 9.7377912e-39 319 275
0 0.704 -0.043202132 9.7374325e-39 320 275
0.0012378532 0.70599997 -0.043324865 9.9214622e-39 321 275
0.0024757064 0.70599997 -0.043324865 9.7381499e-39 322 275
0.00372408 0.708 -0.043447599 9.8303441e-39 323 275
0.0049654399 0.708 -0.043447599 9.7385115e-39 324 275
0.0062067998 0.708 -0.043447599 9.7385115e-39 325 275
0.0074691991 0.70999998 -0.043570329 9.4630064e-39 326 275
0.0087140659 0.70999998 -0.043570329 9.4630064e-39 327 275
0.0099589331 0.70999998 -0.043570329 9.5548461e-39 328 275
0.01121958 0.71100003 -0.043631699 9.6474004e-39 329 275
0.0124662 0.71100003 -0.043631699 9.4655245e-39 330 275
0.01371282 0.71100003 -0.043631699 9.6499158e-39 331 275
0.015001519 0.713 -0.043754432 9.7428303e-39 332 275
0.016251646 0.713 -0.043754432 1.0019777e-38 333 275
0.017501773 0.713 -0.043754432 1.0021575e-38 334 275
0.018751899 0.713 -0.043754432 1.0482195e-38 335 275
0.020114239 0.71700001 -0.043999899 1.0577986e-38 336 275
0.021371379 0.71700001 -0.043999899 1.2698485e-38 337 275
-0.035599679 0.75199997 -0.047466237 1.1601493e-38 293 276
-0.034281172 0.75199997 -0.047466237 1.1768954e-38 294 276
-0.031121666 0.70999998 -0.044815198 1.1399812e-38 295 276
-0.029876797 0.70999998 -0.044815198 1.1858272e-38 296 276
-0.028631933 0.70999998 -0.044815198 1.1397294e-38 297 276
-0.027387066 0.70999998 -0.044815198 1.1578819e-38 298 276
-0.026068559 0.708 -0.044688959 1.1486623e-38 299 276
-0.024827199 0.708 -0.044688959 1.1394427e-38 300 276
-0.023585839 0.708 -0.044688959 1.130223e-38 301 276
-0.022344479 0.708 -0.044688959 1.1210029e-38 302 276
-0.021162732 0.70999998 -0.044815198 1.1210029e-38 303 276
-0.019917866 0.70999998 -0.044815198 1.0843404e-38 304 276
-0.0186204 0.708 -0.044688959 1.075121e-38 305 276
-0.017379038 0.708 -0.044688959 1.0934522e-38 306 276
-0.01613768 0.708 -0.044688959 1.0842328e-38 307 276
-0.01487528 0.70700002 -0.044625837 1.0842328e-38 308 276
-0.013635674 0.70700002 -0.044625837 1.0750134e-38 309 276
-0.0124136 0.708 -0.044688959 1.0749058e-38 310 276
-0.011156459 0.70700002 -0.044625837 1.0749058e-38 311 276
-0.0099168532 0.70700002 -0.044625837 1.0473551e-38 312 276
-0.008677247 0.70700002 -0.044625837 1.0473551e-38 313 276
-0.0074376399 0.70700002 -0.044625837 1.0564669e-38 314 276
-0.0061980332 0.70700002 -0.044625837 1.0564669e-38 315 276
-0.0049584266 0.70700002 -0.044625837 1.0014015e-38 316 276
-0.0037135598 0.70599997 -0.044562716 9.9218209e-39 317 276
-0.0024757064 0.70599997 -0.044562716 9.6459557e-39 318 276
-0.0012378532 0.70599997 -0.044562716 9.6459557e-39 319 276
0 0.70599997 -0.044562716 9.7381499e-39 320 276
0.0012396066 0.70700002 -0.044625837 9.7381499e-39 321 276
0.0024792133 0.70700002 -0.044625837 9.7377926e-39 322 276
0.0037345996 0.70999998 -0.044815198 9.8303469e-39 323 276
0.0049794666 0.70999998 -0.044815198 9.6473976e-39 324 276
0.0062243328 0.70999998 -0.044815198 9.6473976e-39 325 276
0.0074691991 0.70999998 -0.044815198 9.4626532e-39 326 276
0.0087263398 0.71100003 -0.044878319 9.5548489e-39 327 276
0.0099729598 0.71100003 -0.044878319 9.4637322e-39 328 276
0.01121958 0.71100003 -0.044878319 9.7399604e-39 329 276
0.0124662 0.71100003 -0.044878319 9.4666035e-39 330 276
0.01371282 0.71100003 -0.044878319 9.6506346e-39 331 276
0.015001519 0.713 -0.045004558 9.7439107e-39 332 276
0.016251646 0.713 -0.045004558 1.0112692e-38 333 276
0.017501773 0.713 -0.045004558 1.011521e-38 334 276
-0.034281172 0.75199997 -0.048784744 1.2511921e-38 294 277
-0.032962665 0.75199997 -0.048784744 1.085276e-38 295 277
-0.029876797 0.70999998 -0.046060063 1.1857907e-38 296 277
-0.028631933 0.70999998 -0.046060063 1.1857907e-38 297 277
-0.027387066 0.70999998 -0.046060063 1.1579537e-38 298 277
-0.026068559 0.708 -0.045930319 1.1487342e-38 299 277
-0.024827199 0.708 -0.045930319 1.1395146e-38 300 277
-0.023585839 0.708 -0.045930319 1.1211115e-38 301 277
