4.000000	5.000000	3.000000
4.000000	5.000000	3.000000
4.000000	5.000000	3.000000
4.000000	5.000000	3.000000
4.000000	5.000000	3.000000
4.000000	5.000000	3.000000
4.000000	5.000000	3.000000
4.000000	5.000000	3.000000
4.000000	5.000000	3.000000
4.000000	5.000000	3.000000
4.000000	5.000000	3.000000
4.000000	5.000000	3.000000
4.000000	5.000000	3.000000
4.000000	5.000000	3.000000
4.000000	5.000000	3.000000
4.000000	5.000000	3.000000
3.827947	5.099335	3.059800
3.791907	5.028991	3.059800
3.764163	4.957492	3.059800
3.745822	4.887688	3.059800
3.737613	4.822361	3.059800
3.739865	4.764116	3.059800
3.752488	4.715275	3.059800
3.774978	4.677785	3.059800
3.806439	4.653141	3.059800
3.845617	4.642325	3.059800
3.890950	4.645768	3.059800
3.940630	4.663333	3.059800
3.992677	4.694321	3.059800
4.045016	4.737494	3.059800
4.095560	4.791133	3.059800
4.142295	4.853099	3.059800
3.662754	5.194709	3.236817
3.592111	5.056827	3.236817
3.537729	4.916679	3.236817
3.501777	4.779853	3.236817
3.485687	4.651804	3.236817
3.490101	4.537636	3.236817
3.514843	4.441901	3.236817
3.558927	4.368416	3.236817
3.620595	4.320110	3.236817
3.697389	4.298909	3.236817
3.786247	4.305658	3.236817
3.883626	4.340089	3.236817
3.985645	4.400828	3.236817
4.088237	4.485454	3.236817
4.187310	4.590594	3.236817
4.278916	4.712055	3.236817
3.511005	5.282321	3.523993
3.408575	5.082397	3.523993
3.329724	4.879188	3.523993
3.277594	4.680795	3.523993
3.254264	4.495128	3.523993
3.260665	4.329589	3.523993
3.296540	4.190777	3.523993
3.360460	4.084226	3.523993
3.449877	4.014184	3.523993
3.561225	3.983443	3.523993
3.690066	3.993230	3.523993
3.831263	4.043153	3.523993
3.979186	4.131222	3.523993
4.127940	4.253927	3.523993
4.271593	4.406376	3.523993
4.404419	4.582490	3.523993
3.378751	5.358678	3.909880
3.248618	5.104682	3.909880
3.148441	4.846513	3.909880
3.082212	4.594463	3.909880
3.052572	4.358580	3.909880
3.060704	4.148269	3.909880
3.106282	3.971914	3.909880
3.187490	3.836545	3.909880
3.301090	3.747559	3.909880
3.442553	3.708505	3.909880
3.606241	3.720938	3.909880
3.785626	3.784363	3.909880
3.973557	3.896252	3.909880
4.162543	4.052144	3.909880
4.345049	4.245824	3.909880
4.513798	4.469570	3.909880
3.271265	5.420735	4.379093
3.118616	5.122794	4.379093
3.001106	4.819957	4.379093
2.923419	4.524298	4.379093
2.888651	4.247604	4.379093
2.898189	4.000905	4.379093
2.951653	3.794037	4.379093
3.046912	3.635247	4.379093
3.180167	3.530866	4.379093
3.346106	3.485054	4.379093
3.538113	3.499638	4.379093
3.748535	3.574037	4.379093
3.968982	3.705285	4.379093
4.190666	3.888148	4.379093
4.404748	4.115338	4.379093
4.602694	4.377797	4.379093
3.192830	5.466020	4.912927
3.023753	5.136011	4.912927
2.893595	4.800579	4.912927
2.807545	4.473098	4.912927
2.769036	4.166623	4.912927
2.779601	3.893372	4.912927
2.838819	3.664239	4.912927
2.944330	3.488358	4.912927
3.091927	3.372742	4.912927
3.275727	3.321999	4.912927
3.488400	3.338153	4.912927
3.721470	3.420560	4.912927
3.965644	3.565934	4.912927
4.211187	3.768479	4.912927
4.448311	4.020122	4.912927
4.667562	4.310829	4.912927
3.146575	5.492725	5.490099
2.967809	5.143805	5.490099
2.830192	4.789151	5.490099
2.739212	4.442904	5.490099
2.698495	4.118866	5.490099
2.709665	3.829956	5.490099
2.772277	3.587693	5.490099
2.883835	3.401733	5.490099
3.039890	3.279491	5.490099
3.234222	3.225841	5.490099
3.459083	3.242921	5.490099
3.705509	3.330050	5.490099
3.963675	3.483754	5.490099
4.223289	3.697907	5.490099
4.474002	3.963969	5.490099
4.705817	4.271336	5.490099
3.134344	5.499787	6.087599
2.953015	5.145866	6.087599
2.813426	4.786129	6.087599
2.721141	4.434919	6.087599
2.679841	4.106237	6.087599
2.691172	3.813187	6.087599
2.754681	3.567451	6.087599
2.867837	3.378826	6.087599
3.026129	3.254832	6.087599
3.223247	3.200413	6.087599
3.451330	3.217738	6.087599
3.701288	3.306115	6.087599
3.963154	3.462023	6.087599
4.226489	3.679244	6.087599
4.480795	3.949121	6.087599
4.715933	4.260892	6.087599
3.156623	5.486924	6.681606
2.979961	5.142112	6.681606
2.843964	4.791634	6.681606
2.754055	4.449463	6.681606
2.713818	4.129240	6.681606
2.724857	3.843732	6.681606
2.786732	3.604320	6.681606
2.896976	3.420550	6.681606
3.051194	3.299748	6.681606
3.243238	3.246729	6.681606
3.465451	3.263608	6.681606
3.708976	3.349711	6.681606
3.964103	3.501606	6.681606
4.220660	3.713237	6.681606
4.468421	3.976167	6.681606
4.697507	4.279914	6.681606
3.212525	5.454649	7.248441
3.047573	5.132692	7.248441
2.920591	4.805445	7.248441
2.836641	4.485954	7.248441
2.799071	4.186957	7.248441
2.809378	3.920374	7.248441
2.867152	3.696831	7.248441
2.970088	3.525242	7.248441
3.114084	3.412447	7.248441
3.293399	3.362942	7.248441
3.500883	3.378702	7.248441
3.728266	3.459098	7.248441
3.966482	3.600925	7.248441
4.206034	3.798528	7.248441
4.437372	4.044030	7.248441
4.651274	4.327644	7.248441
3.299822	5.404248	7.765503
3.153155	5.117982	7.765503
3.040250	4.827013	7.765503
2.965606	4.542939	7.765503
2.932201	4.277088	7.765503
2.941366	4.040057	7.765503
2.992735	3.841295	7.765503
3.084260	3.688728	7.765503
3.212293	3.588436	7.765503
3.371730	3.544420	7.765503
3.556213	3.558433	7.765503
3.758389	3.629916	7.765503
3.970198	3.756020	7.765503
4.183194	3.931718	7.765503
4.388887	4.150005	7.765503
4.579076	4.402179	7.765503
3.415032	5.337732	8.212181
3.292498	5.098569	8.212181
3.198171	4.855477	8.212181
3.135810	4.618146	8.212181
3.107901	4.396039	8.212181
3.115558	4.198009	8.212181
3.158474	4.031953	8.212181
3.234940	3.904490	8.212181
3.341906	3.820701	8.212181
3.475108	3.783927	8.212181
3.629236	3.795634	8.212181
3.798145	3.855355	8.212181
3.975101	3.960710	8.212181
4.153051	4.107498	8.212181
4.324898	4.289867	8.212181
4.483793	4.500547	8.212181
3.553563	5.257751	8.570666
3.460047	5.075226	8.570666
3.388058	4.889702	8.570666
3.340465	4.708576	8.570666
3.319166	4.539068	8.570666
3.325009	4.387935	8.570666
3.357763	4.261204	8.570666
3.416120	4.163926	8.570666
3.497754	4.099980	8.570666
3.599412	4.071915	8.570666
3.717039	4.080849	8.570666
3.845948	4.126428	8.570666
3.980998	4.206832	8.570666
4.116805	4.318858	8.570666
4.247956	4.458039	8.570666
4.369222	4.618826	8.570666
3.709892	5.167494	8.826667
3.649123	5.048884	8.826667
3.602342	4.928325	8.826667
3.571415	4.810624	8.826667
3.557574	4.700472	8.826667
3.561371	4.602262	8.826667
3.582655	4.519908	8.826667
3.620577	4.456694	8.826667
3.673626	4.415140	8.826667
3.739686	4.396903	8.826667
3.816124	4.402709	8.826667
3.899892	4.432327	8.826667
3.987652	4.484576	8.826667
4.075904	4.557374	8.826667
4.161129	4.647818	8.826667
4.239931	4.752302	8.826667
3.877786	5.070560	8.969977
3.852186	5.020593	8.969977
3.832479	4.969806	8.969977
3.819450	4.920222	8.969977
3.813620	4.873818	8.969977
3.815219	4.832445	8.969977
3.824186	4.797752	8.969977
3.840161	4.771122	8.969977
3.862509	4.753617	8.969977
3.890338	4.745934	8.969977
3.922539	4.748380	8.969977
3.957828	4.760857	8.969977
3.994798	4.782868	8.969977
4.031976	4.813535	8.969977
4.067879	4.851637	8.969977
4.101076	4.895653	8.969977
4.050553	4.970813	8.994884
4.061143	4.991482	8.994884
4.069295	5.012490	8.994884
4.074684	5.033000	8.994884
4.077096	5.052195	8.994884
4.076434	5.069309	8.994884
4.072725	5.083659	8.994884
4.066117	5.094675	8.994884
4.056873	5.101916	8.994884
4.045362	5.105094	8.994884
4.032042	5.104082	8.994884
4.017444	5.098921	8.994884
4.002152	5.089816	8.994884
3.986773	5.077131	8.994884
3.971922	5.061370	8.994884
3.958190	5.043163	8.994884
4.221305	4.872229	8.900395
4.267662	4.962709	8.900395
4.303348	5.054676	8.900395
4.326940	5.144463	8.900395
4.337499	5.228491	8.900395
4.334602	5.303409	8.900395
4.318366	5.366231	8.900395
4.289438	5.414453	8.900395
4.248970	5.446152	8.900395
4.198577	5.460065	8.900395
4.140267	5.455636	8.900395
4.076366	5.433042	8.900395
4.009420	5.393184	8.900395
3.942098	5.337651	8.900395
3.877085	5.268657	8.900395
3.816972	5.188953	8.900395
4.383234	4.778740	8.690275
4.463510	4.935424	8.690275
4.525307	5.094682	8.690275
4.566162	5.250166	8.690275
4.584446	5.395677	8.690275
4.579430	5.525413	8.690275
4.551314	5.634203	8.690275
4.501219	5.717709	8.690275
4.431142	5.772602	8.690275
4.343876	5.796694	8.690275
4.242901	5.789024	8.690275
4.132243	5.749898	8.690275
4.016312	5.680877	8.690275
3.899731	5.584711	8.690275
3.787148	5.465234	8.690275
3.683050	5.327210	8.690275
4.529884	4.694071	8.372903
4.640879	4.910713	8.372903
4.726325	5.130914	8.372903
4.782813	5.345897	8.372903
4.808094	5.547089	8.372903
4.801158	5.726471	8.372903
4.762283	5.876890	8.372903
4.693018	5.992351	8.372903
4.596125	6.068250	8.372903
4.475465	6.101561	8.372903
4.335851	6.090957	8.372903
4.182847	6.036859	8.372903
4.022554	5.941425	8.372903
3.861362	5.808459	8.372903
3.705696	5.643263	8.372903
3.561764	5.452422	8.372903
4.655410	4.621599	7.960931
4.792699	4.889561	7.960931
4.898386	5.161927	7.960931
4.968256	5.427837	7.960931
4.999526	5.676690	7.960931
4.990947	5.898566	7.960931
4.942862	6.084619	7.960931
4.857189	6.227432	7.960931
4.737342	6.321311	7.960931
4.588100	6.362513	7.960931
4.415412	6.349396	7.960931
4.226162	6.282483	7.960931
4.027897	6.164442	7.960931
3.828519	5.999977	7.960931
3.635978	5.795647	7.960931
3.457949	5.559597	7.960931
4.754807	4.564212	7.470782
4.912916	4.872813	7.470782
5.034631	5.186484	7.470782
5.115098	5.492721	7.470782
5.151109	5.779314	7.470782
5.141230	6.034839	7.470782
5.085853	6.249108	7.470782
4.987186	6.413579	7.470782
4.849164	6.521695	7.470782
4.677288	6.569145	7.470782
4.478411	6.554039	7.470782
4.260461	6.476979	7.470782
4.032128	6.341036	7.470782
3.802513	6.151630	7.470782
3.580772	5.916312	7.470782
3.375744	5.644463	7.470782
4.824112	4.524199	6.921999
4.996738	4.861135	6.921999
5.129628	5.203607	6.921999
5.217484	5.537961	6.921999
5.256802	5.850869	6.921999
5.246015	6.129856	6.921999
5.185554	6.363798	6.921999
5.077828	6.543371	6.921999
4.927133	6.661414	6.921999
4.739476	6.713221	6.921999
4.522338	6.696728	6.921999
4.284376	6.612592	6.921999
4.035077	6.464167	6.921999
3.784380	6.257370	6.921999
3.542279	6.000446	6.921999
3.318426	5.703637	6.921999
4.860562	4.503154	6.336458
5.040824	4.854993	6.336458
5.179591	5.212612	6.336458
5.271332	5.561755	6.336458
5.312389	5.888503	6.336458
5.301126	6.179829	6.336458
5.237990	6.424118	6.336458
5.125500	6.611633	6.336458
4.968139	6.734897	6.336458
4.772182	6.788996	6.336458
4.545441	6.771774	6.336458
4.296954	6.683916	6.336458
4.036629	6.528926	6.336458
3.774843	6.312983	6.336458
3.522034	6.044695	6.336458
3.288280	5.734758	6.336458
4.862704	4.501918	5.737503
5.043415	4.854632	5.737503
5.182528	5.213141	5.737503
5.274497	5.563153	5.737503
5.315656	5.890714	5.737503
5.304364	6.182766	5.737503
5.241072	6.427663	5.737503
5.128301	6.615645	5.737503
4.970549	6.739216	5.737503
4.774104	6.793450	5.737503
4.546798	6.776184	5.737503
4.297693	6.688108	5.737503
4.036720	6.532732	5.737503
3.774283	6.316251	5.737503
3.520844	6.047295	5.737503
3.286508	5.736587	5.737503
4.830453	4.520538	5.149013
5.004408	4.860066	5.149013
5.138320	5.205173	5.149013
5.226852	5.542101	5.149013
5.266472	5.857416	5.149013
5.255603	6.138549	5.149013
5.194676	6.374292	5.149013
5.086121	6.555246	5.149013
4.934267	6.674197	5.149013
4.745166	6.726404	5.149013
4.526357	6.709784	5.149013
4.286564	6.625000	5.149013
4.035347	6.475433	5.149013
3.782721	6.267045	5.149013
3.538757	6.008144	5.149013
3.313181	5.709051	5.149013
4.765094	4.558273	4.594450
4.925359	4.871079	4.594450
5.048732	5.189026	4.594450
5.130295	5.499436	4.594450
5.166798	5.789936	4.594450
5.156784	6.048943	4.594450
5.100652	6.266132	4.594450
5.000641	6.432845	4.594450
4.860738	6.542434	4.594450
4.686519	6.590532	4.594450
4.484932	6.575220	4.594450
4.264011	6.497109	4.594450
4.032565	6.359313	4.594450
3.799821	6.167325	4.594450
3.575058	5.928800	4.594450
3.367236	5.653247	4.594450
4.669234	4.613618	4.095921
4.809418	4.887232	4.095921
4.917334	5.165342	4.095921
4.988678	5.436860	4.095921
5.020607	5.690963	4.095921
5.011847	5.917518	4.095921
4.962749	6.107495	4.095921
4.875268	6.253320	4.095921
4.752894	6.349179	4.095921
4.600504	6.391250	4.095921
4.424173	6.377857	4.095921
4.230933	6.309532	4.095921
4.028485	6.189001	4.095921
3.824902	6.021068	4.095921
3.628300	5.812429	4.095921
3.446516	5.571400	4.095921
4.546693	4.684367	3.673302
4.661209	4.907881	3.673302
4.749364	5.135067	3.673302
4.807645	5.356869	3.673302
4.833728	5.564443	3.673302
4.826572	5.749515	3.673302
4.786464	5.904706	3.673302
4.715001	6.023830	3.673302
4.615034	6.102136	3.673302
4.490548	6.136504	3.673302
4.346505	6.125563	3.673302
4.188647	6.069749	3.673302
4.023269	5.971288	3.673302
3.856964	5.834105	3.673302
3.696361	5.663668	3.673302
3.547862	5.466773	3.673302
4.402357	4.767699	3.343441
4.486639	4.932202	3.343441
4.551520	5.099407	3.343441
4.594414	5.262650	3.343441
4.613610	5.415421	3.343441
4.608344	5.551631	3.343441
4.578825	5.665849	3.343441
4.526230	5.753522	3.343441
4.452655	5.811155	3.343441
4.361035	5.836449	3.343441
4.255022	5.828396	3.343441
4.138841	5.787318	3.343441
4.017126	5.714852	3.343441
3.894728	5.613888	3.343441
3.776526	5.488449	3.343441
3.667234	5.343538	3.343441
4.241981	4.860292	3.119489
4.292669	4.959225	3.119489
4.331689	5.059784	3.119489
4.357485	5.157960	3.119489
4.369030	5.249838	3.119489
4.365863	5.331755	3.119489
4.348110	5.400447	3.119489
4.316479	5.453174	3.119489
4.272231	5.487835	3.119489
4.217130	5.503047	3.119489
4.153372	5.498204	3.119489
4.083500	5.473500	3.119489
4.010300	5.429918	3.119489
3.936688	5.369197	3.119489
3.865601	5.293757	3.119489
3.799872	5.206606	3.119489
4.071958	4.958455	3.010374
4.087030	4.987875	3.010374
4.098634	5.017778	3.010374
4.106305	5.046972	3.010374
